64.000000 -181.873373 -78.323147
64.000000 -183.820208 -78.781225
64.000000 -185.767042 -79.239304
64.000000 -187.713876 -79.697383
64.000000 -189.660711 -80.155461
64.000000 -191.607545 -80.613540
64.000000 -193.554379 -81.071619
64.000000 -195.501214 -81.529697
64.000000 -197.448048 -81.987776
64.000000 -199.394882 -82.445855
64.000000 -201.341717 -82.903933
64.000000 -203.288551 -83.362012
64.000000 -205.235386 -83.820091
64.000000 -207.182220 -84.278169
64.000000 -209.129054 -84.736248
64.000000 -211.075889 -85.194327
64.000000 -213.022723 -85.652405
64.000000 -214.969557 -86.110484
64.000000 -216.916392 -86.568563
64.000000 -218.863226 -87.026641
64.000000 -220.810060 -87.484720
64.000000 -222.756895 -87.942799
64.000000 -224.703729 -88.400877
64.000000 -226.650563 -88.858956
64.000000 -228.597398 -89.317035
64.000000 -230.544232 -89.775113
64.000000 -232.491066 -90.233192
64.000000 -234.437901 -90.691271
64.000000 -236.384735 -91.149349
64.000000 -240.000000 -92.000000
63.967746 -241.999740 -92.000000
63.935492 -243.999480 -92.000000
63.903238 -245.999220 -92.000000
63.870985 -247.998960 -92.000000
63.838731 -249.998700 -92.000000
63.806477 -251.998439 -92.000000
63.774223 -253.998179 -92.000000
63.741969 -255.997919 -92.000000
63.709715 -257.997659 -92.000000
63.677461 -259.997399 -92.000000
63.645207 -261.997139 -92.000000
63.612954 -263.996879 -92.000000
63.580700 -265.996619 -92.000000
63.548446 -267.996359 -92.000000
63.516192 -269.996099 -92.000000
63.483938 -271.995838 -92.000000
63.451684 -273.995578 -92.000000
63.419430 -275.995318 -92.000000
63.387176 -277.995058 -92.000000
63.354923 -279.994798 -92.000000
63.322669 -281.994538 -92.000000
63.290415 -283.994278 -92.000000
63.258161 -285.994018 -92.000000
63.225907 -287.993758 -92.000000
63.193653 -289.993498 -92.000000
63.161399 -291.993238 -92.000000
63.129146 -293.992977 -92.000000
63.096892 -295.992717 -92.000000
63.064638 -297.992457 -92.000000
63.032384 -299.992197 -92.000000
63.000130 -301.991937 -92.000000
62.967876 -303.991677 -92.000000
62.935622 -305.991417 -92.000000
62.903368 -307.991157 -92.000000
62.871115 -309.990897 -92.000000
62.838861 -311.990637 -92.000000
62.806607 -313.990376 -92.000000
62.774353 -315.990116 -92.000000
62.742099 -317.989856 -92.000000
62.709845 -319.989596 -92.000000
62.677591 -321.989336 -92.000000
62.645337 -323.989076 -92.000000
62.613084 -325.988816 -92.000000
62.580830 -327.988556 -92.000000
62.548576 -329.988296 -92.000000
62.516322 -331.988036 -92.000000
62.484068 -333.987776 -92.000000
62.451814 -335.987515 -92.000000
62.419560 -337.987255 -92.000000
62.387307 -339.986995 -92.000000
62.355053 -341.986735 -92.000000
62.322799 -343.986475 -92.000000
62.290545 -345.986215 -92.000000
62.258291 -347.985955 -92.000000
62.226037 -349.985695 -92.000000
62.193783 -351.985435 -92.000000
62.161529 -353.985175 -92.000000
62.129276 -355.984914 -92.000000
62.097022 -357.984654 -92.000000
62.064768 -359.984394 -92.000000
62.032514 -361.984134 -92.000000
62.000260 -363.983874 -92.000000
61.968006 -365.983614 -92.000000
61.935752 -367.983354 -92.000000
61.903498 -369.983094 -92.000000
61.871245 -371.982834 -92.000000
61.838991 -373.982574 -92.000000
61.806737 -375.982314 -92.000000
61.774483 -377.982053 -92.000000
61.742229 -379.981793 -92.000000
61.709975 -381.981533 -92.000000
61.677721 -383.981273 -92.000000
61.645468 -385.981013 -92.000000
61.613214 -387.980753 -92.000000
61.580960 -389.980493 -92.000000
61.548706 -391.980233 -92.000000
61.516452 -393.979973 -92.000000
61.484198 -395.979713 -92.000000
61.451944 -397.979453 -92.000000
61.419690 -399.979192 -92.000000
61.387437 -401.978932 -92.000000
61.355183 -403.978672 -92.000000
61.322929 -405.978412 -92.000000
61.290675 -407.978152 -92.000000
61.258421 -409.977892 -92.000000
61.226167 -411.977632 -92.000000
61.193913 -413.977372 -92.000000
61.161659 -415.977112 -92.000000
61.129406 -417.976852 -92.000000
61.097152 -419.976591 -92.000000
61.064898 -421.976331 -92.000000
61.032644 -423.976071 -92.000000
61.000390 -425.975811 -92.000000
60.968136 -427.975551 -92.000000
60.935882 -429.975291 -92.000000
60.903629 -431.975031 -92.000000
60.871375 -433.974771 -92.000000
60.839121 -435.974511 -92.000000
60.806867 -437.974251 -92.000000
60.774613 -439.973991 -92.000000
60.742359 -441.973730 -92.000000
60.710105 -443.973470 -92.000000
60.677851 -445.973210 -92.000000
60.645598 -447.972950 -92.000000
60.613344 -449.972690 -92.000000
60.581090 -451.972430 -92.000000
60.548836 -453.972170 -92.000000
60.516582 -455.971910 -92.000000
60.484328 -457.971650 -92.000000
60.452074 -459.971390 -92.000000
60.419820 -461.971129 -92.000000
60.387567 -463.970869 -92.000000
60.355313 -465.970609 -92.000000
60.323059 -467.970349 -92.000000
60.290805 -469.970089 -92.000000
60.258551 -471.969829 -92.000000
60.226297 -473.969569 -92.000000
60.194043 -475.969309 -92.000000
60.161790 -477.969049 -92.000000
60.129536 -479.968789 -92.000000
60.097282 -481.968529 -92.000000
60.065028 -483.968268 -92.000000
60.032774 -485.968008 -92.000000
60.000520 -487.967748 -92.000000
59.968266 -489.967488 -92.000000
59.936012 -491.967228 -92.000000
59.903759 -493.966968 -92.000000
59.871505 -495.966708 -92.000000
59.839251 -497.966448 -92.000000
59.806997 -499.966188 -92.000000
59.774743 -501.965928 -92.000000
59.742489 -503.965667 -92.000000
59.710235 -505.965407 -92.000000
59.677981 -507.965147 -92.000000
59.645728 -509.964887 -92.000000
59.613474 -511.964627 -92.000000
59.581220 -513.964367 -92.000000
59.548966 -515.964107 -92.000000
59.516712 -517.963847 -92.000000
59.484458 -519.963587 -92.000000
59.452204 -521.963327 -92.000000
59.419951 -523.963067 -92.000000
59.387697 -525.962806 -92.000000
59.355443 -527.962546 -92.000000
59.323189 -529.962286 -92.000000
59.290935 -531.962026 -92.000000
59.258681 -533.961766 -92.000000
59.226427 -535.961506 -92.000000
59.194173 -537.961246 -92.000000
59.161920 -539.960986 -92.000000
59.129666 -541.960726 -92.000000
59.097412 -543.960466 -92.000000
59.065158 -545.960205 -92.000000
59.032904 -547.959945 -92.000000
59.000650 -549.959685 -92.000000
58.968396 -551.959425 -92.000000
58.936142 -553.959165 -92.000000
58.903889 -555.958905 -92.000000
58.871635 -557.958645 -92.000000
58.839381 -559.958385 -92.000000
58.807127 -561.958125 -92.000000
58.774873 -563.957865 -92.000000
58.742619 -565.957605 -92.000000
58.710365 -567.957344 -92.000000
58.678112 -569.957084 -92.000000
58.645858 -571.956824 -92.000000
58.613604 -573.956564 -92.000000
58.581350 -575.956304 -92.000000
58.549096 -577.956044 -92.000000
58.516842 -579.955784 -92.000000
58.484588 -581.955524 -92.000000
58.452334 -583.955264 -92.000000
58.420081 -585.955004 -92.000000
58.387827 -587.954743 -92.000000
58.355573 -589.954483 -92.000000
58.323319 -591.954223 -92.000000
58.291065 -593.953963 -92.000000
58.258811 -595.953703 -92.000000
58.226557 -597.953443 -92.000000
58.194304 -599.953183 -92.000000
58.162050 -601.952923 -92.000000
58.129796 -603.952663 -92.000000
58.097542 -605.952403 -92.000000
58.065288 -607.952143 -92.000000
58.033034 -609.951882 -92.000000
58.000780 -611.951622 -92.000000
57.968526 -613.951362 -92.000000
57.936273 -615.951102 -92.000000
57.904019 -617.950842 -92.000000
57.871765 -619.950582 -92.000000
57.839511 -621.950322 -92.000000
57.807257 -623.950062 -92.000000
57.775003 -625.949802 -92.000000
57.742749 -627.949542 -92.000000
57.710495 -629.949281 -92.000000
57.678242 -631.949021 -92.000000
57.645988 -633.948761 -92.000000
57.613734 -635.948501 -92.000000
57.581480 -637.948241 -92.000000
57.549226 -639.947981 -92.000000
57.516972 -641.947721 -92.000000
57.484718 -643.947461 -92.000000
57.452465 -645.947201 -92.000000
57.420211 -647.946941 -92.000000
57.387957 -649.946681 -92.000000
57.355703 -651.946420 -92.000000
57.323449 -653.946160 -92.000000
57.291195 -655.945900 -92.000000
57.258941 -657.945640 -92.000000
57.226687 -659.945380 -92.000000
57.194434 -661.945120 -92.000000
57.162180 -663.944860 -92.000000
57.129926 -665.944600 -92.000000
57.097672 -667.944340 -92.000000
57.065418 -669.944080 -92.000000
57.033164 -671.943819 -92.000000
57.000910 -673.943559 -92.000000
56.968656 -675.943299 -92.000000
56.936403 -677.943039 -92.000000
56.904149 -679.942779 -92.000000
56.871895 -681.942519 -92.000000
56.839641 -683.942259 -92.000000
56.807387 -685.941999 -92.000000
56.775133 -687.941739 -92.000000
56.742879 -689.941479 -92.000000
56.710626 -691.941219 -92.000000
56.678372 -693.940958 -92.000000
56.646118 -695.940698 -92.000000
56.613864 -697.940438 -92.000000
56.581610 -699.940178 -92.000000
56.549356 -701.939918 -92.000000
56.517102 -703.939658 -92.000000
56.484848 -705.939398 -92.000000
56.452595 -707.939138 -92.000000
56.420341 -709.938878 -92.000000
56.388087 -711.938618 -92.000000
56.355833 -713.938358 -92.000000
56.323579 -715.938097 -92.000000
56.291325 -717.937837 -92.000000
56.259071 -719.937577 -92.000000
56.226817 -721.937317 -92.000000
56.194564 -723.937057 -92.000000
56.162310 -725.936797 -92.000000
56.130056 -727.936537 -92.000000
56.097802 -729.936277 -92.000000
56.065548 -731.936017 -92.000000
56.033294 -733.935757 -92.000000
56.001040 -735.935496 -92.000000
55.968787 -737.935236 -92.000000
55.936533 -739.934976 -92.000000
55.904279 -741.934716 -92.000000
55.872025 -743.934456 -92.000000
55.839771 -745.934196 -92.000000
55.807517 -747.933936 -92.000000
55.775263 -749.933676 -92.000000
55.743009 -751.933416 -92.000000
55.710756 -753.933156 -92.000000
55.678502 -755.932896 -92.000000
55.646248 -757.932635 -92.000000
55.613994 -759.932375 -92.000000
55.581740 -761.932115 -92.000000
55.549486 -763.931855 -92.000000
55.517232 -765.931595 -92.000000
55.484978 -767.931335 -92.000000
55.452725 -769.931075 -92.000000
55.420471 -771.930815 -92.000000
55.388217 -773.930555 -92.000000
55.355963 -775.930295 -92.000000
55.323709 -777.930034 -92.000000
55.291455 -779.929774 -92.000000
55.259201 -781.929514 -92.000000
55.226948 -783.929254 -92.000000
55.194694 -785.928994 -92.000000
55.162440 -787.928734 -92.000000
55.130186 -789.928474 -92.000000
55.097932 -791.928214 -92.000000
55.065678 -793.927954 -92.000000
55.033424 -795.927694 -92.000000
55.001170 -797.927434 -92.000000
54.968917 -799.927173 -92.000000
54.936663 -801.926913 -92.000000
54.904409 -803.926653 -92.000000
54.872155 -805.926393 -92.000000
54.839901 -807.926133 -92.000000
54.807647 -809.925873 -92.000000
54.775393 -811.925613 -92.000000
54.743139 -813.925353 -92.000000
54.710886 -815.925093 -92.000000
54.678632 -817.924833 -92.000000
54.646378 -819.924572 -92.000000
54.614124 -821.924312 -92.000000
54.581870 -823.924052 -92.000000
54.549616 -825.923792 -92.000000
54.517362 -827.923532 -92.000000
54.485109 -829.923272 -92.000000
54.452855 -831.923012 -92.000000
54.420601 -833.922752 -92.000000
54.388347 -835.922492 -92.000000
54.356093 -837.922232 -92.000000
54.323839 -839.921972 -92.000000
54.291585 -841.921711 -92.000000
54.259331 -843.921451 -92.000000
54.227078 -845.921191 -92.000000
54.194824 -847.920931 -92.000000
54.162570 -849.920671 -92.000000
54.130316 -851.920411 -92.000000
54.098062 -853.920151 -92.000000
54.065808 -855.919891 -92.000000
54.033554 -857.919631 -92.000000
54.001300 -859.919371 -92.000000
53.969047 -861.919110 -92.000000
53.936793 -863.918850 -92.000000
53.904539 -865.918590 -92.000000
53.872285 -867.918330 -92.000000
53.840031 -869.918070 -92.000000
53.807777 -871.917810 -92.000000
53.775523 -873.917550 -92.000000
53.743270 -875.917290 -92.000000
53.711016 -877.917030 -92.000000
53.678762 -879.916770 -92.000000
53.646508 -881.916510 -92.000000
53.614254 -883.916249 -92.000000
53.582000 -885.915989 -92.000000
53.549746 -887.915729 -92.000000
53.517492 -889.915469 -92.000000
53.485239 -891.915209 -92.000000
53.452985 -893.914949 -92.000000
53.420731 -895.914689 -92.000000
53.388477 -897.914429 -92.000000
53.356223 -899.914169 -92.000000
53.323969 -901.913909 -92.000000
53.291715 -903.913648 -92.000000
53.259461 -905.913388 -92.000000
53.227208 -907.913128 -92.000000
53.194954 -909.912868 -92.000000
53.162700 -911.912608 -92.000000
53.130446 -913.912348 -92.000000
53.098192 -915.912088 -92.000000
53.065938 -917.911828 -92.000000
53.033684 -919.911568 -92.000000
53.001431 -921.911308 -92.000000
52.969177 -923.911048 -92.000000
52.936923 -925.910787 -92.000000
52.904669 -927.910527 -92.000000
52.872415 -929.910267 -92.000000
52.840161 -931.910007 -92.000000
52.807907 -933.909747 -92.000000
52.775653 -935.909487 -92.000000
52.743400 -937.909227 -92.000000
52.711146 -939.908967 -92.000000
52.678892 -941.908707 -92.000000
52.646638 -943.908447 -92.000000
52.614384 -945.908186 -92.000000
52.582130 -947.907926 -92.000000
52.549876 -949.907666 -92.000000
52.517622 -951.907406 -92.000000
52.485369 -953.907146 -92.000000
52.453115 -955.906886 -92.000000
52.420861 -957.906626 -92.000000
52.388607 -959.906366 -92.000000
52.356353 -961.906106 -92.000000
52.324099 -963.905846 -92.000000
52.291845 -965.905586 -92.000000
52.259592 -967.905325 -92.000000
52.227338 -969.905065 -92.000000
52.195084 -971.904805 -92.000000
52.162830 -973.904545 -92.000000
52.130576 -975.904285 -92.000000
52.098322 -977.904025 -92.000000
52.066068 -979.903765 -92.000000
52.033814 -981.903505 -92.000000
52.001561 -983.903245 -92.000000
51.969307 -985.902985 -92.000000
51.937053 -987.902724 -92.000000
51.904799 -989.902464 -92.000000
51.872545 -991.902204 -92.000000
51.840291 -993.901944 -92.000000
51.808037 -995.901684 -92.000000
51.775783 -997.901424 -92.000000
51.743530 -999.901164 -92.000000
51.711276 -1001.900904 -92.000000
51.679022 -1003.900644 -92.000000
51.646768 -1005.900384 -92.000000
51.614514 -1007.900124 -92.000000
51.582260 -1009.899863 -92.000000
51.550006 -1011.899603 -92.000000
51.517753 -1013.899343 -92.000000
51.485499 -1015.899083 -92.000000
51.453245 -1017.898823 -92.000000
51.420991 -1019.898563 -92.000000
51.388737 -1021.898303 -92.000000
51.356483 -1023.898043 -92.000000
51.324229 -1025.897783 -92.000000
51.291975 -1027.897523 -92.000000
51.259722 -1029.897263 -92.000000
51.227468 -1031.897002 -92.000000
51.195214 -1033.896742 -92.000000
51.162960 -1035.896482 -92.000000
51.130706 -1037.896222 -92.000000
51.098452 -1039.895962 -92.000000
51.066198 -1041.895702 -92.000000
51.033944 -1043.895442 -92.000000
51.001691 -1045.895182 -92.000000
50.969437 -1047.894922 -92.000000
50.937183 -1049.894662 -92.000000
50.904929 -1051.894401 -92.000000
50.872675 -1053.894141 -92.000000
50.840421 -1055.893881 -92.000000
50.808167 -1057.893621 -92.000000
50.775914 -1059.893361 -92.000000
50.743660 -1061.893101 -92.000000
50.711406 -1063.892841 -92.000000
50.679152 -1065.892581 -92.000000
50.646898 -1067.892321 -92.000000
50.614644 -1069.892061 -92.000000
50.582390 -1071.891801 -92.000000
50.550136 -1073.891540 -92.000000
50.517883 -1075.891280 -92.000000
50.485629 -1077.891020 -92.000000
50.453375 -1079.890760 -92.000000
50.421121 -1081.890500 -92.000000
50.388867 -1083.890240 -92.000000
50.356613 -1085.889980 -92.000000
50.324359 -1087.889720 -92.000000
50.292105 -1089.889460 -92.000000
50.259852 -1091.889200 -92.000000
50.227598 -1093.888939 -92.000000
50.195344 -1095.888679 -92.000000
50.163090 -1097.888419 -92.000000
50.130836 -1099.888159 -92.000000
50.098582 -1101.887899 -92.000000
50.066328 -1103.887639 -92.000000
50.034075 -1105.887379 -92.000000
50.001821 -1107.887119 -92.000000
49.969567 -1109.886859 -92.000000
49.937313 -1111.886599 -92.000000
49.905059 -1113.886339 -92.000000
49.872805 -1115.886078 -92.000000
49.840551 -1117.885818 -92.000000
49.808297 -1119.885558 -92.000000
49.776044 -1121.885298 -92.000000
49.743790 -1123.885038 -92.000000
49.711536 -1125.884778 -92.000000
49.679282 -1127.884518 -92.000000
49.647028 -1129.884258 -92.000000
49.614774 -1131.883998 -92.000000
49.582520 -1133.883738 -92.000000
49.550266 -1135.883477 -92.000000
49.518013 -1137.883217 -92.000000
49.485759 -1139.882957 -92.000000
49.453505 -1141.882697 -92.000000
49.421251 -1143.882437 -92.000000
49.388997 -1145.882177 -92.000000
49.356743 -1147.881917 -92.000000
49.324489 -1149.881657 -92.000000
49.292236 -1151.881397 -92.000000
49.259982 -1153.881137 -92.000000
49.227728 -1155.880877 -92.000000
49.195474 -1157.880616 -92.000000
49.163220 -1159.880356 -92.000000
49.130966 -1161.880096 -92.000000
49.098712 -1163.879836 -92.000000
49.066458 -1165.879576 -92.000000
49.034205 -1167.879316 -92.000000
49.001951 -1169.879056 -92.000000
48.969697 -1171.878796 -92.000000
48.937443 -1173.878536 -92.000000
48.905189 -1175.878276 -92.000000
48.872935 -1177.878015 -92.000000
48.840681 -1179.877755 -92.000000
48.808427 -1181.877495 -92.000000
48.776174 -1183.877235 -92.000000
48.743920 -1185.876975 -92.000000
48.711666 -1187.876715 -92.000000
48.679412 -1189.876455 -92.000000
48.647158 -1191.876195 -92.000000
48.614904 -1193.875935 -92.000000
48.582650 -1195.875675 -92.000000
48.550397 -1197.875415 -92.000000
48.518143 -1199.875154 -92.000000
48.485889 -1201.874894 -92.000000
48.453635 -1203.874634 -92.000000
48.421381 -1205.874374 -92.000000
48.389127 -1207.874114 -92.000000
48.356873 -1209.873854 -92.000000
48.324619 -1211.873594 -92.000000
48.292366 -1213.873334 -92.000000
48.260112 -1215.873074 -92.000000
48.227858 -1217.872814 -92.000000
48.195604 -1219.872553 -92.000000
48.163350 -1221.872293 -92.000000
48.131096 -1223.872033 -92.000000
48.098842 -1225.871773 -92.000000
48.066588 -1227.871513 -92.000000
48.034335 -1229.871253 -92.000000
48.000000 -1232.000000 -92.000000
49.706848 -1232.525061 -91.099455
51.413695 -1233.050123 -90.198909
53.120543 -1233.575184 -89.298364
54.827390 -1234.100245 -88.397819
56.534238 -1234.625306 -87.497273
58.241086 -1235.150368 -86.596728
59.947933 -1235.675429 -85.696182
61.654781 -1236.200490 -84.795637
63.361628 -1236.725551 -83.895092
65.068476 -1237.250613 -82.994546
66.775324 -1237.775674 -82.094001
68.482171 -1238.300735 -81.193456
70.189019 -1238.825796 -80.292910
71.895866 -1239.350858 -79.392365
73.602714 -1239.875919 -78.491820
75.309562 -1240.400980 -77.591274
77.016409 -1240.926041 -76.690729
78.723257 -1241.451103 -75.790184
80.430104 -1241.976164 -74.889638
82.136952 -1242.501225 -73.989093
83.843800 -1243.026286 -73.088547
85.550647 -1243.551348 -72.188002
87.257495 -1244.076409 -71.287457
88.964342 -1244.601470 -70.386911
90.671190 -1245.126531 -69.486366
92.378038 -1245.651593 -68.585821
94.084885 -1246.176654 -67.685275
95.791733 -1246.701715 -66.784730
97.498580 -1247.226776 -65.884185
99.205428 -1247.751838 -64.983639
100.912276 -1248.276899 -64.083094
102.619123 -1248.801960 -63.182548
104.325971 -1249.327021 -62.282003
106.032818 -1249.852083 -61.381458
107.739666 -1250.377144 -60.480912
109.446514 -1250.902205 -59.580367
111.153361 -1251.427266 -58.679822
112.860209 -1251.952328 -57.779276
114.567056 -1252.477389 -56.878731
116.273904 -1253.002450 -55.978186
117.980752 -1253.527511 -55.077640
119.687599 -1254.052573 -54.177095
121.394447 -1254.577634 -53.276549
123.101294 -1255.102695 -52.376004
124.808142 -1255.627756 -51.475459
126.514990 -1256.152818 -50.574913
128.221837 -1256.677879 -49.674368
129.928685 -1257.202940 -48.773823
131.635532 -1257.728001 -47.873277
133.342380 -1258.253063 -46.972732
135.049228 -1258.778124 -46.072187
136.756075 -1259.303185 -45.171641
138.462923 -1259.828246 -44.271096
140.169771 -1260.353308 -43.370551
141.876618 -1260.878369 -42.470005
143.583466 -1261.403430 -41.569460
145.290313 -1261.928491 -40.668914
146.997161 -1262.453553 -39.768369
148.704009 -1262.978614 -38.867824
150.410856 -1263.503675 -37.967278
152.117704 -1264.028736 -37.066733
153.824551 -1264.553798 -36.166188
155.531399 -1265.078859 -35.265642
157.238247 -1265.603920 -34.365097
158.945094 -1266.128981 -33.464552
160.651942 -1266.654043 -32.564006
162.358789 -1267.179104 -31.663461
164.065637 -1267.704165 -30.762915
165.772485 -1268.229226 -29.862370
167.479332 -1268.754288 -28.961825
169.186180 -1269.279349 -28.061279
170.893027 -1269.804410 -27.160734
172.599875 -1270.329471 -26.260189
174.306723 -1270.854533 -25.359643
176.013570 -1271.379594 -24.459098
177.720418 -1271.904655 -23.558553
179.427265 -1272.429716 -22.658007
181.134113 -1272.954778 -21.757462
182.840961 -1273.479839 -20.856917
184.547808 -1274.004900 -19.956371
186.254656 -1274.529961 -19.055826
187.961503 -1275.055023 -18.155280
189.668351 -1275.580084 -17.254735
191.375199 -1276.105145 -16.354190
193.082046 -1276.630206 -15.453644
194.788894 -1277.155268 -14.553099
196.495741 -1277.680329 -13.652554
198.202589 -1278.205390 -12.752008
199.909437 -1278.730451 -11.851463
201.616284 -1279.255513 -10.950918
203.323132 -1279.780574 -10.050372
205.029979 -1280.305635 -9.149827
206.736827 -1280.830696 -8.249281
208.443675 -1281.355758 -7.348736
210.150522 -1281.880819 -6.448191
211.857370 -1282.405880 -5.547645
213.564217 -1282.930941 -4.647100
215.271065 -1283.456003 -3.746555
216.977913 -1283.981064 -2.846009
218.684760 -1284.506125 -1.945464
220.391608 -1285.031186 -1.044919
222.098455 -1285.556248 -0.144373
223.805303 -1286.081309 0.756172
225.512151 -1286.606370 1.656717
227.218998 -1287.131431 2.557263
228.925846 -1287.656493 3.457808
230.632693 -1288.181554 4.358354
232.339541 -1288.706615 5.258899
234.046389 -1289.231676 6.159444
235.753236 -1289.756738 7.059990
237.460084 -1290.281799 7.960535
239.166931 -1290.806860 8.861080
240.873779 -1291.331921 9.761626
242.580627 -1291.856983 10.662171
244.287474 -1292.382044 11.562716
245.994322 -1292.907105 12.463262
247.701169 -1293.432166 13.363807
249.408017 -1293.957228 14.264353
251.114865 -1294.482289 15.164898
252.821712 -1295.007350 16.065443
254.528560 -1295.532411 16.965989
256.235407 -1296.057473 17.866534
257.942255 -1296.582534 18.767079
259.649103 -1297.107595 19.667625
261.355950 -1297.632656 20.568170
263.062798 -1298.157718 21.468715
264.769645 -1298.682779 22.369261
266.476493 -1299.207840 23.269806
268.183341 -1299.732901 24.170352
269.890188 -1300.257963 25.070897
271.597036 -1300.783024 25.971442
273.303883 -1301.308085 26.871988
275.010731 -1301.833146 27.772533
276.717579 -1302.358208 28.673078
278.424426 -1302.883269 29.573624
280.131274 -1303.408330 30.474169
281.838121 -1303.933391 31.374714
283.544969 -1304.458453 32.275260
285.251817 -1304.983514 33.175805
286.958664 -1305.508575 34.076350
288.665512 -1306.033636 34.976896
290.372359 -1306.558698 35.877441
292.079207 -1307.083759 36.777987
293.786055 -1307.608820 37.678532
295.492902 -1308.133881 38.579077
297.199750 -1308.658943 39.479623
298.906597 -1309.184004 40.380168
300.613445 -1309.709065 41.280713
302.320293 -1310.234126 42.181259
304.027140 -1310.759188 43.081804
305.733988 -1311.284249 43.982349
307.440835 -1311.809310 44.882895
309.147683 -1312.334371 45.783440
310.854531 -1312.859433 46.683986
312.561378 -1313.384494 47.584531
314.268226 -1313.909555 48.485076
315.975074 -1314.434616 49.385622
317.681921 -1314.959678 50.286167
319.388769 -1315.484739 51.186712
321.095616 -1316.009800 52.087258
322.802464 -1316.534861 52.987803
324.509312 -1317.059923 53.888348
326.216159 -1317.584984 54.788894
327.923007 -1318.110045 55.689439
329.629854 -1318.635106 56.589984
331.336702 -1319.160168 57.490530
333.043550 -1319.685229 58.391075
334.750397 -1320.210290 59.291621
336.457245 -1320.735351 60.192166
338.164092 -1321.260413 61.092711
339.870940 -1321.785474 61.993257
341.577788 -1322.310535 62.893802
343.284635 -1322.835596 63.794347
344.991483 -1323.360658 64.694893
346.698330 -1323.885719 65.595438
348.405178 -1324.410780 66.495983
350.112026 -1324.935841 67.396529
351.818873 -1325.460903 68.297074
353.525721 -1325.985964 69.197620
355.232568 -1326.511025 70.098165
356.939416 -1327.036086 70.998710
358.646264 -1327.561148 71.899256
360.353111 -1328.086209 72.799801
362.059959 -1328.611270 73.700346
363.766806 -1329.136331 74.600892
365.473654 -1329.661393 75.501437
367.180502 -1330.186454 76.401982
368.887349 -1330.711515 77.302528
370.594197 -1331.236576 78.203073
372.301044 -1331.761638 79.103618
374.007892 -1332.286699 80.004164
375.714740 -1332.811760 80.904709
377.421587 -1333.336821 81.805255
379.128435 -1333.861883 82.705800
380.835282 -1334.386944 83.606345
382.542130 -1334.912005 84.506891
384.248978 -1335.437066 85.407436
385.955825 -1335.962128 86.307981
387.662673 -1336.487189 87.208527
389.369520 -1337.012250 88.109072
391.076368 -1337.537311 89.009617
392.783216 -1338.062373 89.910163
394.490063 -1338.587434 90.810708
396.196911 -1339.112495 91.711254
397.903758 -1339.637556 92.611799
399.610606 -1340.162618 93.512344
401.317454 -1340.687679 94.412890
403.024301 -1341.212740 95.313435
404.731149 -1341.737801 96.213980
406.437996 -1342.262863 97.114526
408.144844 -1342.787924 98.015071
409.851692 -1343.312985 98.915616
411.558539 -1343.838047 99.816162
413.265387 -1344.363108 100.716707
414.972234 -1344.888169 101.617253
416.679082 -1345.413230 102.517798
418.385930 -1345.938292 103.418343
420.092777 -1346.463353 104.318889
421.799625 -1346.988414 105.219434
423.506472 -1347.513475 106.119979
425.213320 -1348.038537 107.020525
426.920168 -1348.563598 107.921070
428.627015 -1349.088659 108.821615
430.333863 -1349.613720 109.722161
432.040710 -1350.138782 110.622706
433.747558 -1350.663843 111.523251
435.454406 -1351.188904 112.423797
437.161253 -1351.713965 113.324342
438.868101 -1352.239027 114.224888
440.574948 -1352.764088 115.125433
442.281796 -1353.289149 116.025978
443.988644 -1353.814210 116.926524
445.695491 -1354.339272 117.827069
447.402339 -1354.864333 118.727614
449.109186 -1355.389394 119.628160
450.816034 -1355.914455 120.528705
452.522882 -1356.439517 121.429250
454.229729 -1356.964578 122.329796
455.936577 -1357.489639 123.230341
457.643424 -1358.014700 124.130887
459.350272 -1358.539762 125.031432
461.057120 -1359.064823 125.931977
462.763967 -1359.589884 126.832523
464.470815 -1360.114945 127.733068
466.177662 -1360.640007 128.633613
467.884510 -1361.165068 129.534159
469.591358 -1361.690129 130.434704
471.298205 -1362.215190 131.335249
473.005053 -1362.740252 132.235795
474.711900 -1363.265313 133.136340
476.418748 -1363.790374 134.036885
478.125596 -1364.315435 134.937431
479.832443 -1364.840497 135.837976
481.539291 -1365.365558 136.738522
483.246138 -1365.890619 137.639067
484.952986 -1366.415680 138.539612
486.659834 -1366.940742 139.440158
488.366681 -1367.465803 140.340703
490.073529 -1367.990864 141.241248
491.780376 -1368.515925 142.141794
493.487224 -1369.040987 143.042339
495.194072 -1369.566048 143.942884
496.900919 -1370.091109 144.843430
498.607767 -1370.616170 145.743975
500.314615 -1371.141232 146.644521
502.021462 -1371.666293 147.545066
503.728310 -1372.191354 148.445611
505.435157 -1372.716415 149.346157
507.142005 -1373.241477 150.246702
508.848853 -1373.766538 151.147247
510.555700 -1374.291599 152.047793
512.262548 -1374.816660 152.948338
513.969395 -1375.341722 153.848883
515.676243 -1375.866783 154.749429
517.383091 -1376.391844 155.649974
519.089938 -1376.916905 156.550520
520.796786 -1377.441967 157.451065
522.503633 -1377.967028 158.351610
524.210481 -1378.492089 159.252156
525.917329 -1379.017150 160.152701
527.624176 -1379.542212 161.053246
529.331024 -1380.067273 161.953792
531.037871 -1380.592334 162.854337
532.744719 -1381.117395 163.754882
534.451567 -1381.642457 164.655428
536.158414 -1382.167518 165.555973
537.865262 -1382.692579 166.456518
539.572109 -1383.217640 167.357064
541.278957 -1383.742702 168.257609
542.985805 -1384.267763 169.158155
544.692652 -1384.792824 170.058700
546.399500 -1385.317885 170.959245
548.106347 -1385.842947 171.859791
549.813195 -1386.368008 172.760336
551.520043 -1386.893069 173.660881
553.226890 -1387.418130 174.561427
554.933738 -1387.943192 175.461972
556.640585 -1388.468253 176.362517
558.347433 -1388.993314 177.263063
560.054281 -1389.518375 178.163608
561.761128 -1390.043437 179.064154
563.467976 -1390.568498 179.964699
565.174823 -1391.093559 180.865244
566.881671 -1391.618620 181.765790
568.588519 -1392.143682 182.666335
570.295366 -1392.668743 183.566880
572.002214 -1393.193804 184.467426
573.709061 -1393.718865 185.367971
575.415909 -1394.243927 186.268516
577.122757 -1394.768988 187.169062
578.829604 -1395.294049 188.069607
580.536452 -1395.819110 188.970152
582.243299 -1396.344172 189.870698
583.950147 -1396.869233 190.771243
585.656995 -1397.394294 191.671789
587.363842 -1397.919355 192.572334
589.070690 -1398.444417 193.472879
590.777537 -1398.969478 194.373425
592.484385 -1399.494539 195.273970
594.191233 -1400.019600 196.174515
595.898080 -1400.544662 197.075061
597.604928 -1401.069723 197.975606
599.311775 -1401.594784 198.876151
601.018623 -1402.119845 199.776697
602.725471 -1402.644907 200.677242
604.432318 -1403.169968 201.577788
606.139166 -1403.695029 202.478333
607.846013 -1404.220090 203.378878
609.552861 -1404.745152 204.279424
611.259709 -1405.270213 205.179969
612.966556 -1405.795274 206.080514
614.673404 -1406.320335 206.981060
616.380251 -1406.845397 207.881605
618.087099 -1407.370458 208.782150
619.793947 -1407.895519 209.682696
621.500794 -1408.420580 210.583241
623.207642 -1408.945642 211.483786
624.914489 -1409.470703 212.384332
626.621337 -1409.995764 213.284877
628.328185 -1410.520825 214.185423
630.035032 -1411.045887 215.085968
631.741880 -1411.570948 215.986513
633.448727 -1412.096009 216.887059
635.155575 -1412.621070 217.787604
636.862423 -1413.146132 218.688149
638.569270 -1413.671193 219.588695
640.276118 -1414.196254 220.489240
641.982965 -1414.721315 221.389785
643.689813 -1415.246377 222.290331
645.396661 -1415.771438 223.190876
647.103508 -1416.296499 224.091422
648.810356 -1416.821560 224.991967
650.517203 -1417.346622 225.892512
652.224051 -1417.871683 226.793058
653.930899 -1418.396744 227.693603
655.637746 -1418.921805 228.594148
657.344594 -1419.446867 229.494694
659.051441 -1419.971928 230.395239
660.758289 -1420.496989 231.295784
662.465137 -1421.022050 232.196330
664.171984 -1421.547112 233.096875
665.878832 -1422.072173 233.997421
667.585679 -1422.597234 234.897966
669.292527 -1423.122295 235.798511
670.999375 -1423.647357 236.699057
672.706222 -1424.172418 237.599602
674.413070 -1424.697479 238.500147
676.119918 -1425.222540 239.400693
677.826765 -1425.747602 240.301238
679.533613 -1426.272663 241.201783
681.240460 -1426.797724 242.102329
682.947308 -1427.322785 243.002874
684.654156 -1427.847847 243.903419
686.361003 -1428.372908 244.803965
688.067851 -1428.897969 245.704510
689.774698 -1429.423030 246.605056
691.481546 -1429.948092 247.505601
693.188394 -1430.473153 248.406146
694.895241 -1430.998214 249.306692
696.602089 -1431.523275 250.207237
700.000000 -1432.568542 252.000000
700.000000 -1434.568542 252.000000
700.000000 -1436.568542 252.000000
700.000000 -1438.568542 252.000000
700.000000 -1440.568542 252.000000
700.000000 -1442.568542 252.000000
700.000000 -1444.568542 252.000000
700.000000 -1446.568542 252.000000
700.000000 -1448.568542 252.000000
700.000000 -1450.568542 252.000000
700.000000 -1452.568542 252.000000
700.000000 -1454.568542 252.000000
700.000000 -1456.568542 252.000000
700.000000 -1458.568542 252.000000
700.000000 -1460.568542 252.000000
700.000000 -1462.568542 252.000000
700.000000 -1464.568542 252.000000
700.000000 -1466.568542 252.000000
700.000000 -1468.568542 252.000000
700.000000 -1470.568542 252.000000
700.000000 -1472.568542 252.000000
700.000000 -1474.568542 252.000000
700.000000 -1476.568542 252.000000
700.000000 -1478.568542 252.000000
700.000000 -1480.568542 252.000000
700.000000 -1482.568542 252.000000
700.000000 -1484.568542 252.000000
700.000000 -1486.568542 252.000000
700.000000 -1488.568542 252.000000
700.000000 -1490.568542 252.000000
700.000000 -1492.568542 252.000000
700.000000 -1494.568542 252.000000
700.000000 -1496.568542 252.000000
700.000000 -1498.568542 252.000000
700.000000 -1500.568542 252.000000
700.000000 -1502.568542 252.000000
700.000000 -1504.568542 252.000000
700.000000 -1506.568542 252.000000
700.000000 -1508.568542 252.000000
700.000000 -1510.568542 252.000000
700.000000 -1512.568542 252.000000
700.000000 -1514.568542 252.000000
700.000000 -1516.568542 252.000000
700.000000 -1518.568542 252.000000
700.000000 -1520.568542 252.000000
700.000000 -1522.568542 252.000000
700.000000 -1524.568542 252.000000
700.000000 -1526.568542 252.000000
700.000000 -1528.568542 252.000000
700.000000 -1530.568542 252.000000
700.000000 -1532.568542 252.000000
700.000000 -1534.568542 252.000000
700.000000 -1536.568542 252.000000
700.000000 -1538.568542 252.000000
700.000000 -1540.568542 252.000000
700.000000 -1542.568542 252.000000
700.000000 -1544.568542 252.000000
700.000000 -1546.568542 252.000000
700.000000 -1548.568542 252.000000
700.000000 -1550.568542 252.000000
700.000000 -1552.568542 252.000000
700.000000 -1554.568542 252.000000
700.000000 -1556.568542 252.000000
700.000000 -1558.568542 252.000000
700.000000 -1560.568542 252.000000
700.000000 -1562.568542 252.000000
700.000000 -1564.568542 252.000000
700.000000 -1566.568542 252.000000
700.000000 -1568.568542 252.000000
700.000000 -1570.568542 252.000000
700.000000 -1572.568542 252.000000
700.000000 -1574.568542 252.000000
700.000000 -1576.568542 252.000000
700.000000 -1578.568542 252.000000
700.000000 -1580.568542 252.000000
700.000000 -1582.568542 252.000000
700.000000 -1584.568542 252.000000
700.000000 -1586.568542 252.000000
700.000000 -1588.568542 252.000000
700.000000 -1590.568542 252.000000
700.000000 -1592.568542 252.000000
700.000000 -1594.568542 252.000000
700.000000 -1596.568542 252.000000
700.000000 -1598.568542 252.000000
700.000000 -1600.568542 252.000000
700.000000 -1602.568542 252.000000
700.000000 -1604.568542 252.000000
700.000000 -1606.568542 252.000000
700.000000 -1608.568542 252.000000
700.000000 -1610.568542 252.000000
700.000000 -1612.568542 252.000000
700.000000 -1616.000000 252.000000
700.000000 -1618.000000 252.000000
700.000000 -1620.000000 252.000000
700.000000 -1622.000000 252.000000
700.000000 -1624.000000 252.000000
700.000000 -1626.000000 252.000000
700.000000 -1628.000000 252.000000
700.000000 -1630.000000 252.000000
700.000000 -1632.000000 252.000000
700.000000 -1634.000000 252.000000
700.000000 -1636.000000 252.000000
700.000000 -1638.000000 252.000000
700.000000 -1640.000000 252.000000
700.000000 -1642.000000 252.000000
700.000000 -1644.000000 252.000000
700.000000 -1646.000000 252.000000
700.000000 -1648.000000 252.000000
700.000000 -1650.000000 252.000000
700.000000 -1652.000000 252.000000
700.000000 -1654.000000 252.000000
700.000000 -1656.000000 252.000000
700.000000 -1658.000000 252.000000
700.000000 -1660.000000 252.000000
700.000000 -1662.000000 252.000000
700.000000 -1664.000000 252.000000
700.000000 -1666.000000 252.000000
700.000000 -1668.000000 252.000000
700.000000 -1670.000000 252.000000
700.000000 -1672.000000 252.000000
700.000000 -1674.000000 252.000000
700.000000 -1676.000000 252.000000
700.000000 -1678.000000 252.000000
700.000000 -1680.000000 252.000000
700.000000 -1682.000000 252.000000
700.000000 -1684.000000 252.000000
700.000000 -1686.000000 252.000000
700.000000 -1688.000000 252.000000
700.000000 -1690.000000 252.000000
700.000000 -1692.000000 252.000000
700.000000 -1694.000000 252.000000
700.000000 -1696.000000 252.000000
700.000000 -1698.000000 252.000000
700.000000 -1700.000000 252.000000
700.000000 -1702.000000 252.000000
700.000000 -1704.000000 252.000000
700.000000 -1706.000000 252.000000
700.000000 -1708.000000 252.000000
700.000000 -1710.000000 252.000000
700.000000 -1712.000000 252.000000
700.000000 -1714.000000 252.000000
700.000000 -1716.000000 252.000000
700.000000 -1718.000000 252.000000
700.000000 -1720.000000 252.000000
700.000000 -1722.000000 252.000000
700.000000 -1724.000000 252.000000
700.000000 -1726.000000 252.000000
700.000000 -1728.000000 252.000000
700.000000 -1730.000000 252.000000
700.000000 -1732.000000 252.000000
700.000000 -1734.000000 252.000000
700.000000 -1736.000000 252.000000
700.000000 -1738.000000 252.000000
700.000000 -1740.000000 252.000000
700.000000 -1742.000000 252.000000
700.000000 -1744.000000 252.000000
700.000000 -1746.000000 252.000000
700.000000 -1748.000000 252.000000
700.000000 -1750.000000 252.000000
700.000000 -1752.000000 252.000000
700.000000 -1754.000000 252.000000
700.000000 -1756.000000 252.000000
700.000000 -1758.000000 252.000000
700.000000 -1760.000000 252.000000
700.000000 -1762.000000 252.000000
700.000000 -1764.000000 252.000000
700.000000 -1766.000000 252.000000
700.000000 -1768.000000 252.000000
700.000000 -1770.000000 252.000000
700.000000 -1772.000000 252.000000
700.000000 -1774.000000 252.000000
700.000000 -1776.000000 252.000000
700.000000 -1778.000000 252.000000
700.000000 -1780.000000 252.000000
700.000000 -1782.000000 252.000000
700.000000 -1784.000000 252.000000
700.000000 -1786.000000 252.000000
700.000000 -1788.000000 252.000000
700.000000 -1790.000000 252.000000
700.000000 -1792.000000 252.000000
700.000000 -1794.000000 252.000000
700.000000 -1796.000000 252.000000
700.000000 -1798.000000 252.000000
700.000000 -1800.000000 252.000000
700.000000 -1802.000000 252.000000
700.000000 -1804.000000 252.000000
700.000000 -1808.000000 252.000000
699.308094 -1809.446713 253.195110
698.616188 -1810.893425 254.390221
697.924282 -1812.340138 255.585331
697.232376 -1813.786850 256.780442
696.540470 -1815.233563 257.975552
695.848564 -1816.680275 259.170662
695.156658 -1818.126988 260.365773
694.464752 -1819.573701 261.560883
693.772846 -1821.020413 262.755993
693.080940 -1822.467126 263.951104
692.389034 -1823.913838 265.146214
691.697128 -1825.360551 266.341325
691.005222 -1826.807263 267.536435
690.313316 -1828.253976 268.731545
689.621410 -1829.700688 269.926656
688.929504 -1831.147401 271.121766
688.237598 -1832.594114 272.316876
687.545692 -1834.040826 273.511987
686.853786 -1835.487539 274.707097
686.161880 -1836.934251 275.902208
685.469974 -1838.380964 277.097318
684.778068 -1839.827676 278.292428
684.086162 -1841.274389 279.487539
683.394256 -1842.721102 280.682649
682.702350 -1844.167814 281.877760
682.010444 -1845.614527 283.072870
681.318538 -1847.061239 284.267980
680.626632 -1848.507952 285.463091
679.934726 -1849.954664 286.658201
679.242820 -1851.401377 287.853311
678.550914 -1852.848090 289.048422
677.859008 -1854.294802 290.243532
677.167102 -1855.741515 291.438643
676.475196 -1857.188227 292.633753
675.783290 -1858.634940 293.828863
675.091384 -1860.081652 295.023974
674.399478 -1861.528365 296.219084
673.707572 -1862.975078 297.414194
673.015666 -1864.421790 298.609305
672.323760 -1865.868503 299.804415
671.631854 -1867.315215 300.999526
670.939948 -1868.761928 302.194636
670.248042 -1870.208640 303.389746
669.556136 -1871.655353 304.584857
668.864230 -1873.102065 305.779967
668.172324 -1874.548778 306.975078
667.480418 -1875.995491 308.170188
666.788512 -1877.442203 309.365298
666.096606 -1878.888916 310.560409
665.404699 -1880.335628 311.755519
664.712793 -1881.782341 312.950629
664.020887 -1883.229053 314.145740
663.328981 -1884.675766 315.340850
662.637075 -1886.122479 316.535961
661.945169 -1887.569191 317.731071
661.253263 -1889.015904 318.926181
660.561357 -1890.462616 320.121292
659.869451 -1891.909329 321.316402
659.177545 -1893.356041 322.511512
658.485639 -1894.802754 323.706623
657.793733 -1896.249467 324.901733
657.101827 -1897.696179 326.096844
656.409921 -1899.142892 327.291954
655.718015 -1900.589604 328.487064
655.026109 -1902.036317 329.682175
654.334203 -1903.483029 330.877285
653.642297 -1904.929742 332.072396
652.950391 -1906.376455 333.267506
652.258485 -1907.823167 334.462616
651.566579 -1909.269880 335.657727
650.874673 -1910.716592 336.852837
650.182767 -1912.163305 338.047947
649.490861 -1913.610017 339.243058
648.798955 -1915.056730 340.438168
648.107049 -1916.503442 341.633279
647.415143 -1917.950155 342.828389
646.723237 -1919.396868 344.023499
646.031331 -1920.843580 345.218610
645.339425 -1922.290293 346.413720
644.647519 -1923.737005 347.608830
643.955613 -1925.183718 348.803941
643.263707 -1926.630430 349.999051
642.571801 -1928.077143 351.194162
641.879895 -1929.523856 352.389272
641.187989 -1930.970568 353.584382
640.496083 -1932.417281 354.779493
639.804177 -1933.863993 355.974603
639.112271 -1935.310706 357.169714
638.420365 -1936.757418 358.364824
637.728459 -1938.204131 359.559934
637.036553 -1939.650844 360.755045
636.344647 -1941.097556 361.950155
635.652741 -1942.544269 363.145265
634.960835 -1943.990981 364.340376
634.268929 -1945.437694 365.535486
633.577023 -1946.884406 366.730597
632.885117 -1948.331119 367.925707
632.193211 -1949.777832 369.120817
631.501305 -1951.224544 370.315928
630.809399 -1952.671257 371.511038
630.117493 -1954.117969 372.706148
629.425587 -1955.564682 373.901259
628.733681 -1957.011394 375.096369
628.041775 -1958.458107 376.291480
627.349869 -1959.904819 377.486590
626.657963 -1961.351532 378.681700
625.966057 -1962.798245 379.876811
625.274151 -1964.244957 381.071921
624.582245 -1965.691670 382.267032
623.890339 -1967.138382 383.462142
623.198433 -1968.585095 384.657252
622.506527 -1970.031807 385.852363
621.814621 -1971.478520 387.047473
621.122715 -1972.925233 388.242583
620.430809 -1974.371945 389.437694
619.738903 -1975.818658 390.632804
619.046997 -1977.265370 391.827915
618.355091 -1978.712083 393.023025
617.663185 -1980.158795 394.218135
616.971279 -1981.605508 395.413246
616.279373 -1983.052221 396.608356
615.587467 -1984.498933 397.803466
614.895561 -1985.945646 398.998577
614.203655 -1987.392358 400.193687
613.511749 -1988.839071 401.388798
612.819843 -1990.285783 402.583908
612.000000 -1992.000000 404.000000
612.000000 -1993.998266 404.083261
612.000000 -1995.996532 404.166522
612.000000 -1997.994798 404.249783
612.000000 -1999.993065 404.333044
612.000000 -2001.991331 404.416305
612.000000 -2003.989597 404.499567
612.000000 -2005.987863 404.582828
612.000000 -2007.986129 404.666089
612.000000 -2009.984395 404.749350
612.000000 -2011.982661 404.832611
612.000000 -2013.980928 404.915872
612.000000 -2015.979194 404.999133
612.000000 -2017.977460 405.082394
612.000000 -2019.975726 405.165655
612.000000 -2021.973992 405.248916
612.000000 -2023.972258 405.332177
612.000000 -2025.970524 405.415439
612.000000 -2027.968791 405.498700
612.000000 -2029.967057 405.581961
612.000000 -2031.965323 405.665222
612.000000 -2033.963589 405.748483
612.000000 -2035.961855 405.831744
612.000000 -2037.960121 405.915005
612.000000 -2039.958388 405.998266
612.000000 -2041.956654 406.081527
612.000000 -2043.954920 406.164788
612.000000 -2045.953186 406.248049
612.000000 -2047.951452 406.331311
612.000000 -2049.949718 406.414572
612.000000 -2051.947984 406.497833
612.000000 -2053.946251 406.581094
612.000000 -2055.944517 406.664355
612.000000 -2057.942783 406.747616
612.000000 -2059.941049 406.830877
612.000000 -2061.939315 406.914138
612.000000 -2063.937581 406.997399
612.000000 -2065.935847 407.080660
612.000000 -2067.934114 407.163921
612.000000 -2069.932380 407.247182
612.000000 -2071.930646 407.330444
612.000000 -2073.928912 407.413705
612.000000 -2075.927178 407.496966
612.000000 -2077.925444 407.580227
612.000000 -2079.923710 407.663488
612.000000 -2081.921977 407.746749
612.000000 -2083.920243 407.830010
612.000000 -2085.918509 407.913271
612.000000 -2088.000000 408.000000
612.000000 -2090.000000 408.000000
612.000000 -2092.000000 408.000000
612.000000 -2094.000000 408.000000
612.000000 -2096.000000 408.000000
612.000000 -2098.000000 408.000000
612.000000 -2100.000000 408.000000
612.000000 -2102.000000 408.000000
612.000000 -2104.000000 408.000000
612.000000 -2106.000000 408.000000
612.000000 -2108.000000 408.000000
612.000000 -2110.000000 408.000000
612.000000 -2112.000000 408.000000
612.000000 -2114.000000 408.000000
612.000000 -2116.000000 408.000000
612.000000 -2120.000000 408.000000
612.000000 -2122.000000 408.000000
612.000000 -2124.000000 408.000000
612.000000 -2126.000000 408.000000
612.000000 -2128.000000 408.000000
612.000000 -2130.000000 408.000000
612.000000 -2132.000000 408.000000
612.000000 -2134.000000 408.000000
612.000000 -2136.000000 408.000000
612.000000 -2138.000000 408.000000
612.000000 -2140.000000 408.000000
612.000000 -2142.000000 408.000000
612.000000 -2144.000000 408.000000
612.000000 -2146.000000 408.000000
612.000000 -2148.000000 408.000000
612.000000 -2150.000000 408.000000
612.000000 -2152.000000 408.000000
612.000000 -2154.000000 408.000000
612.000000 -2156.000000 408.000000
612.000000 -2158.000000 408.000000
612.000000 -2160.000000 408.000000
612.000000 -2162.000000 408.000000
612.000000 -2164.000000 408.000000
612.000000 -2166.000000 408.000000
612.000000 -2168.000000 408.000000
612.000000 -2170.000000 408.000000
612.000000 -2172.000000 408.000000
612.000000 -2174.000000 408.000000
612.000000 -2176.000000 408.000000
612.000000 -2178.000000 408.000000
612.000000 -2180.000000 408.000000
612.000000 -2182.000000 408.000000
612.000000 -2184.000000 408.000000
612.000000 -2186.000000 408.000000
612.000000 -2188.000000 408.000000
612.000000 -2190.000000 408.000000
612.000000 -2192.000000 408.000000
612.000000 -2194.000000 408.000000
612.000000 -2196.000000 408.000000
612.000000 -2198.000000 408.000000
612.000000 -2200.000000 408.000000
612.000000 -2202.000000 408.000000
612.000000 -2204.000000 408.000000
612.000000 -2206.000000 408.000000
612.000000 -2208.000000 408.000000
612.000000 -2210.000000 408.000000
612.000000 -2212.000000 408.000000
612.000000 -2214.000000 408.000000
612.000000 -2216.000000 408.000000
612.000000 -2218.000000 408.000000
612.000000 -2220.000000 408.000000
612.000000 -2222.000000 408.000000
612.000000 -2224.000000 408.000000
612.000000 -2226.000000 408.000000
612.000000 -2228.000000 408.000000
612.000000 -2230.000000 408.000000
612.000000 -2232.000000 408.000000
612.000000 -2234.000000 408.000000
612.000000 -2236.000000 408.000000
612.000000 -2238.000000 408.000000
612.000000 -2240.000000 408.000000
612.000000 -2242.000000 408.000000
612.000000 -2244.000000 408.000000
612.000000 -2246.000000 408.000000
612.000000 -2248.000000 408.000000
612.000000 -2250.000000 408.000000
612.000000 -2252.000000 408.000000
612.000000 -2254.000000 408.000000
612.000000 -2256.000000 408.000000
612.000000 -2258.000000 408.000000
612.000000 -2260.000000 408.000000
612.000000 -2262.000000 408.000000
612.000000 -2264.000000 408.000000
612.000000 -2266.000000 408.000000
612.000000 -2268.000000 408.000000
612.000000 -2270.000000 408.000000
612.000000 -2272.000000 408.000000
612.000000 -2274.000000 408.000000
612.000000 -2276.000000 408.000000
612.000000 -2278.000000 408.000000
612.000000 -2280.000000 408.000000
612.000000 -2282.000000 408.000000
612.000000 -2284.000000 408.000000
612.000000 -2288.000000 408.000000
612.000000 -2290.000000 408.000000
612.000000 -2292.000000 408.000000
612.000000 -2294.000000 408.000000
612.000000 -2296.000000 408.000000
612.000000 -2298.000000 408.000000
612.000000 -2300.000000 408.000000
612.000000 -2302.000000 408.000000
612.000000 -2304.000000 408.000000
612.000000 -2306.000000 408.000000
612.000000 -2308.000000 408.000000
612.000000 -2310.000000 408.000000
612.000000 -2312.000000 408.000000
612.000000 -2314.000000 408.000000
612.000000 -2316.000000 408.000000
612.000000 -2318.000000 408.000000
612.000000 -2320.000000 408.000000
612.000000 -2322.000000 408.000000
612.000000 -2324.000000 408.000000
612.000000 -2326.000000 408.000000
612.000000 -2328.000000 408.000000
612.000000 -2330.000000 408.000000
612.000000 -2332.000000 408.000000
612.000000 -2334.000000 408.000000
612.000000 -2336.000000 408.000000
612.000000 -2338.000000 408.000000
612.000000 -2340.000000 408.000000
612.000000 -2342.000000 408.000000
612.000000 -2344.000000 408.000000
612.000000 -2346.000000 408.000000
612.000000 -2348.000000 408.000000
612.000000 -2350.000000 408.000000
612.000000 -2352.000000 408.000000
612.000000 -2354.000000 408.000000
612.000000 -2356.000000 408.000000
612.000000 -2358.000000 408.000000
612.000000 -2360.000000 408.000000
