1314.000000 -1252.000000 944.000000
1314.000000 -1252.000000 946.000000
1314.000000 -1252.000000 948.000000
1314.000000 -1252.000000 950.000000
1314.000000 -1252.000000 952.000000
1314.000000 -1252.000000 954.000000
1314.000000 -1252.000000 956.000000
1314.000000 -1252.000000 958.000000
1314.000000 -1252.000000 960.000000
1314.000000 -1252.000000 962.000000
1314.000000 -1252.000000 964.000000
1314.000000 -1252.000000 966.000000
1314.000000 -1252.000000 968.000000
1314.000000 -1252.000000 970.000000
1314.000000 -1252.000000 972.000000
1314.000000 -1252.000000 974.000000
1314.000000 -1252.000000 976.000000
1314.000000 -1252.000000 978.000000
1314.000000 -1252.000000 980.000000
1314.000000 -1252.000000 982.000000
1314.000000 -1252.000000 984.000000
1314.000000 -1252.000000 986.000000
1314.000000 -1252.000000 988.000000
1314.000000 -1252.000000 990.000000
1314.000000 -1252.000000 992.000000
1314.000000 -1252.000000 994.000000
1314.000000 -1252.000000 996.000000
1314.000000 -1252.000000 998.000000
1314.000000 -1252.000000 1000.000000
1314.000000 -1252.000000 1002.000000
1314.000000 -1252.000000 1004.000000
1314.000000 -1252.000000 1006.000000
1314.000000 -1252.000000 1008.000000
1314.000000 -1252.000000 1010.000000
1314.000000 -1252.000000 1012.000000
1314.000000 -1252.000000 1014.000000
1314.000000 -1252.000000 1016.000000
1314.000000 -1252.000000 1018.000000
1314.000000 -1252.000000 1020.000000
1314.000000 -1252.000000 1022.000000
1314.000000 -1252.000000 1024.000000
1314.000000 -1252.000000 1026.000000
1314.000000 -1252.000000 1028.000000
1314.000000 -1252.000000 1030.000000
1314.000000 -1252.000000 1032.000000
1314.000000 -1252.000000 1034.000000
1314.000000 -1252.000000 1036.000000
1314.000000 -1252.000000 1038.000000
1314.000000 -1252.000000 1040.000000
1314.000000 -1252.000000 1042.000000
1314.000000 -1252.000000 1044.000000
1314.000000 -1252.000000 1046.000000
1314.000000 -1252.000000 1048.000000
1314.000000 -1252.000000 1050.000000
1314.000000 -1252.000000 1052.000000
1314.000000 -1252.000000 1054.000000
1314.000000 -1252.000000 1056.000000
1314.000000 -1252.000000 1058.000000
1314.000000 -1252.000000 1060.000000
1314.000000 -1252.000000 1062.000000
1314.000000 -1252.000000 1064.000000
1314.000000 -1252.000000 1066.000000
1314.000000 -1252.000000 1068.000000
1314.000000 -1252.000000 1070.000000
1314.000000 -1252.000000 1072.000000
1314.000000 -1252.000000 1074.000000
1314.000000 -1252.000000 1076.000000
1314.000000 -1252.000000 1078.000000
1314.000000 -1252.000000 1080.000000
1314.000000 -1252.000000 1082.000000
1314.000000 -1252.000000 1084.000000
1314.000000 -1252.000000 1086.000000
1314.000000 -1252.000000 1088.000000
1314.000000 -1252.000000 1090.000000
1314.000000 -1252.000000 1092.000000
1314.000000 -1252.000000 1094.000000
1314.000000 -1252.000000 1096.000000
1314.000000 -1252.000000 1098.000000
1314.000000 -1252.000000 1100.000000
1314.000000 -1252.000000 1102.000000
1314.000000 -1252.000000 1104.000000
1314.000000 -1252.000000 1106.000000
1314.000000 -1252.000000 1108.000000
1314.000000 -1252.000000 1110.000000
1314.000000 -1252.000000 1112.000000
1314.000000 -1252.000000 1114.000000
1314.000000 -1252.000000 1116.000000
1314.000000 -1252.000000 1118.000000
1314.000000 -1252.000000 1120.000000
1314.000000 -1252.000000 1122.000000
1314.000000 -1252.000000 1124.000000
1314.000000 -1252.000000 1126.000000
1314.000000 -1252.000000 1128.000000
1314.000000 -1252.000000 1130.000000
1314.000000 -1252.000000 1132.000000
1314.000000 -1252.000000 1134.000000
1314.000000 -1252.000000 1136.000000
1314.000000 -1252.000000 1138.000000
1314.000000 -1252.000000 1140.000000
1314.000000 -1252.000000 1142.000000
1314.000000 -1252.000000 1144.000000
1314.000000 -1252.000000 1146.000000
1314.000000 -1252.000000 1148.000000
1314.000000 -1252.000000 1150.000000
1314.000000 -1252.000000 1152.000000
1314.000000 -1252.000000 1154.000000
1314.000000 -1252.000000 1156.000000
1314.000000 -1252.000000 1158.000000
1314.000000 -1252.000000 1160.000000
1314.000000 -1252.000000 1162.000000
1314.000000 -1252.000000 1164.000000
1314.000000 -1252.000000 1166.000000
1314.000000 -1252.000000 1168.000000
1314.000000 -1252.000000 1170.000000
1314.000000 -1252.000000 1172.000000
1314.000000 -1252.000000 1174.000000
1314.000000 -1252.000000 1176.000000
1314.000000 -1252.000000 1178.000000
1314.000000 -1252.000000 1180.000000
1314.000000 -1252.000000 1182.000000
1314.000000 -1252.000000 1184.000000
1314.000000 -1252.000000 1186.000000
1314.000000 -1252.000000 1188.000000
1314.000000 -1252.000000 1190.000000
1314.000000 -1252.000000 1192.000000
1314.000000 -1252.000000 1194.000000
1314.000000 -1252.000000 1196.000000
1314.000000 -1252.000000 1198.000000
1314.000000 -1252.000000 1200.000000
1314.000000 -1252.000000 1202.000000
1314.000000 -1252.000000 1204.000000
1314.000000 -1252.000000 1206.000000
1314.000000 -1252.000000 1208.000000
1314.000000 -1252.000000 1210.000000
1314.000000 -1252.000000 1212.000000
1314.000000 -1252.000000 1214.000000
1314.000000 -1252.000000 1216.000000
1314.000000 -1252.000000 1218.000000
1314.000000 -1252.000000 1220.000000
1314.000000 -1252.000000 1222.000000
1314.000000 -1252.000000 1224.000000
1314.000000 -1252.000000 1226.000000
1314.000000 -1252.000000 1228.000000
1314.000000 -1252.000000 1230.000000
1314.000000 -1252.000000 1232.000000
1314.000000 -1252.000000 1234.000000
1314.000000 -1252.000000 1236.000000
1314.000000 -1252.000000 1238.000000
1314.000000 -1252.000000 1240.000000
1314.000000 -1252.000000 1242.000000
1314.000000 -1252.000000 1244.000000
1314.000000 -1252.000000 1246.000000
1314.000000 -1252.000000 1248.000000
1314.000000 -1252.000000 1250.000000
1314.000000 -1252.000000 1252.000000
1314.000000 -1252.000000 1254.000000
1314.000000 -1252.000000 1256.000000
1314.000000 -1252.000000 1258.000000
1314.000000 -1252.000000 1260.000000
1314.000000 -1252.000000 1262.000000
1314.000000 -1252.000000 1264.000000
1314.000000 -1252.000000 1266.000000
1314.000000 -1252.000000 1268.000000
1314.000000 -1252.000000 1270.000000
1314.000000 -1252.000000 1272.000000
1314.000000 -1252.000000 1274.000000
1314.000000 -1252.000000 1276.000000
1314.000000 -1252.000000 1278.000000
1314.000000 -1252.000000 1280.000000
1314.000000 -1252.000000 1282.000000
1314.000000 -1252.000000 1284.000000
1314.000000 -1252.000000 1286.000000
1314.000000 -1252.000000 1288.000000
1314.000000 -1252.000000 1290.000000
1314.000000 -1252.000000 1292.000000
1314.000000 -1252.000000 1294.000000
1314.000000 -1252.000000 1296.000000
1314.000000 -1252.000000 1298.000000
1314.000000 -1252.000000 1300.000000
1314.000000 -1252.000000 1302.000000
1314.000000 -1252.000000 1304.000000
1314.000000 -1252.000000 1306.000000
1314.000000 -1252.000000 1308.000000
1314.000000 -1252.000000 1310.000000
1314.000000 -1252.000000 1312.000000
1314.000000 -1252.000000 1314.000000
1314.000000 -1252.000000 1318.000000
1312.156077 -1252.774563 1318.000000
1310.312154 -1253.549126 1318.000000
1308.468231 -1254.323690 1318.000000
1306.624308 -1255.098253 1318.000000
1304.780385 -1255.872816 1318.000000
1302.936462 -1256.647379 1318.000000
1301.092539 -1257.421943 1318.000000
1299.248617 -1258.196506 1318.000000
1297.404694 -1258.971069 1318.000000
1295.560771 -1259.745632 1318.000000
1293.716848 -1260.520196 1318.000000
1291.872925 -1261.294759 1318.000000
1290.029002 -1262.069322 1318.000000
1288.185079 -1262.843885 1318.000000
1286.341156 -1263.618449 1318.000000
1284.497233 -1264.393012 1318.000000
1282.653310 -1265.167575 1318.000000
1280.809387 -1265.942138 1318.000000
1278.965464 -1266.716702 1318.000000
1277.121541 -1267.491265 1318.000000
1275.277618 -1268.265828 1318.000000
1273.433695 -1269.040391 1318.000000
1271.589773 -1269.814954 1318.000000
1269.745850 -1270.589518 1318.000000
1267.901927 -1271.364081 1318.000000
1266.058004 -1272.138644 1318.000000
1264.214081 -1272.913207 1318.000000
1262.370158 -1273.687771 1318.000000
1260.526235 -1274.462334 1318.000000
1258.682312 -1275.236897 1318.000000
1256.838389 -1276.011460 1318.000000
1254.994466 -1276.786024 1318.000000
1253.150543 -1277.560587 1318.000000
1251.306620 -1278.335150 1318.000000
1249.462697 -1279.109713 1318.000000
1247.618774 -1279.884277 1318.000000
1245.774851 -1280.658840 1318.000000
1243.930928 -1281.433403 1318.000000
1242.087006 -1282.207966 1318.000000
1240.243083 -1282.982530 1318.000000
1238.399160 -1283.757093 1318.000000
1236.555237 -1284.531656 1318.000000
1234.711314 -1285.306219 1318.000000
1232.867391 -1286.080783 1318.000000
1231.023468 -1286.855346 1318.000000
1229.179545 -1287.629909 1318.000000
1227.335622 -1288.404472 1318.000000
1225.491699 -1289.179035 1318.000000
1223.647776 -1289.953599 1318.000000
1221.803853 -1290.728162 1318.000000
1219.959930 -1291.502725 1318.000000
1218.116007 -1292.277288 1318.000000
1216.272084 -1293.051852 1318.000000
1214.428162 -1293.826415 1318.000000
1212.584239 -1294.600978 1318.000000
1210.740316 -1295.375541 1318.000000
1208.896393 -1296.150105 1318.000000
1207.052470 -1296.924668 1318.000000
1205.208547 -1297.699231 1318.000000
1203.364624 -1298.473794 1318.000000
1201.520701 -1299.248358 1318.000000
1199.676778 -1300.022921 1318.000000
1197.832855 -1300.797484 1318.000000
1195.988932 -1301.572047 1318.000000
1194.145009 -1302.346611 1318.000000
1192.301086 -1303.121174 1318.000000
1190.457163 -1303.895737 1318.000000
1188.613240 -1304.670300 1318.000000
1186.769318 -1305.444863 1318.000000
1184.925395 -1306.219427 1318.000000
1183.081472 -1306.993990 1318.000000
1181.237549 -1307.768553 1318.000000
1179.393626 -1308.543116 1318.000000
1177.549703 -1309.317680 1318.000000
1175.705780 -1310.092243 1318.000000
1173.861857 -1310.866806 1318.000000
1172.017934 -1311.641369 1318.000000
1170.174011 -1312.415933 1318.000000
1168.330088 -1313.190496 1318.000000
1166.486165 -1313.965059 1318.000000
1164.642242 -1314.739622 1318.000000
1162.798319 -1315.514186 1318.000000
1160.954396 -1316.288749 1318.000000
1159.110473 -1317.063312 1318.000000
1157.266551 -1317.837875 1318.000000
1155.422628 -1318.612439 1318.000000
1153.578705 -1319.387002 1318.000000
1151.734782 -1320.161565 1318.000000
1149.890859 -1320.936128 1318.000000
1148.046936 -1321.710692 1318.000000
1146.203013 -1322.485255 1318.000000
1144.359090 -1323.259818 1318.000000
1142.515167 -1324.034381 1318.000000
1140.671244 -1324.808944 1318.000000
1138.827321 -1325.583508 1318.000000
1136.983398 -1326.358071 1318.000000
1135.139475 -1327.132634 1318.000000
1133.295552 -1327.907197 1318.000000
1131.451629 -1328.681761 1318.000000
1129.607707 -1329.456324 1318.000000
1127.763784 -1330.230887 1318.000000
1125.919861 -1331.005450 1318.000000
1124.075938 -1331.780014 1318.000000
1122.232015 -1332.554577 1318.000000
1120.388092 -1333.329140 1318.000000
1118.544169 -1334.103703 1318.000000
1116.700246 -1334.878267 1318.000000
1114.856323 -1335.652830 1318.000000
1113.012400 -1336.427393 1318.000000
1111.168477 -1337.201956 1318.000000
1109.324554 -1337.976520 1318.000000
1107.480631 -1338.751083 1318.000000
1105.636708 -1339.525646 1318.000000
1103.792785 -1340.300209 1318.000000
1101.948863 -1341.074772 1318.000000
1100.104940 -1341.849336 1318.000000
1098.261017 -1342.623899 1318.000000
1096.417094 -1343.398462 1318.000000
1094.573171 -1344.173025 1318.000000
1092.729248 -1344.947589 1318.000000
1090.885325 -1345.722152 1318.000000
1089.041402 -1346.496715 1318.000000
1087.197479 -1347.271278 1318.000000
1085.353556 -1348.045842 1318.000000
1083.509633 -1348.820405 1318.000000
1081.665710 -1349.594968 1318.000000
1079.821787 -1350.369531 1318.000000
1077.977864 -1351.144095 1318.000000
1076.133941 -1351.918658 1318.000000
1074.290018 -1352.693221 1318.000000
1072.446096 -1353.467784 1318.000000
1070.602173 -1354.242348 1318.000000
1068.758250 -1355.016911 1318.000000
1066.914327 -1355.791474 1318.000000
1065.070404 -1356.566037 1318.000000
1063.226481 -1357.340601 1318.000000
1061.382558 -1358.115164 1318.000000
1059.538635 -1358.889727 1318.000000
1057.694712 -1359.664290 1318.000000
1055.850789 -1360.438853 1318.000000
1054.006866 -1361.213417 1318.000000
1052.162943 -1361.987980 1318.000000
1050.319020 -1362.762543 1318.000000
1048.475097 -1363.537106 1318.000000
1046.631174 -1364.311670 1318.000000
1044.787252 -1365.086233 1318.000000
1042.943329 -1365.860796 1318.000000
1041.099406 -1366.635359 1318.000000
1039.255483 -1367.409923 1318.000000
1037.411560 -1368.184486 1318.000000
1035.567637 -1368.959049 1318.000000
1033.723714 -1369.733612 1318.000000
1031.879791 -1370.508176 1318.000000
1030.035868 -1371.282739 1318.000000
1028.191945 -1372.057302 1318.000000
1026.348022 -1372.831865 1318.000000
1024.504099 -1373.606429 1318.000000
1022.660176 -1374.380992 1318.000000
1020.816253 -1375.155555 1318.000000
1018.972330 -1375.930118 1318.000000
1017.128408 -1376.704681 1318.000000
1015.284485 -1377.479245 1318.000000
1013.440562 -1378.253808 1318.000000
1011.596639 -1379.028371 1318.000000
1009.752716 -1379.802934 1318.000000
1007.908793 -1380.577498 1318.000000
1006.064870 -1381.352061 1318.000000
1004.220947 -1382.126624 1318.000000
1002.377024 -1382.901187 1318.000000
1000.533101 -1383.675751 1318.000000
998.689178 -1384.450314 1318.000000
996.845255 -1385.224877 1318.000000
995.001332 -1385.999440 1318.000000
993.157409 -1386.774004 1318.000000
991.313486 -1387.548567 1318.000000
989.469564 -1388.323130 1318.000000
987.625641 -1389.097693 1318.000000
985.781718 -1389.872257 1318.000000
983.937795 -1390.646820 1318.000000
982.093872 -1391.421383 1318.000000
980.249949 -1392.195946 1318.000000
978.406026 -1392.970509 1318.000000
976.562103 -1393.745073 1318.000000
974.718180 -1394.519636 1318.000000
972.874257 -1395.294199 1318.000000
971.030334 -1396.068762 1318.000000
969.186411 -1396.843326 1318.000000
967.342488 -1397.617889 1318.000000
965.498565 -1398.392452 1318.000000
963.654642 -1399.167015 1318.000000
961.810719 -1399.941579 1318.000000
959.966797 -1400.716142 1318.000000
958.122874 -1401.490705 1318.000000
956.278951 -1402.265268 1318.000000
954.435028 -1403.039832 1318.000000
952.591105 -1403.814395 1318.000000
950.747182 -1404.588958 1318.000000
948.903259 -1405.363521 1318.000000
947.059336 -1406.138085 1318.000000
945.215413 -1406.912648 1318.000000
943.371490 -1407.687211 1318.000000
941.527567 -1408.461774 1318.000000
939.683644 -1409.236338 1318.000000
937.839721 -1410.010901 1318.000000
935.995798 -1410.785464 1318.000000
934.151875 -1411.560027 1318.000000
932.307953 -1412.334590 1318.000000
930.464030 -1413.109154 1318.000000
928.620107 -1413.883717 1318.000000
926.776184 -1414.658280 1318.000000
924.932261 -1415.432843 1318.000000
923.088338 -1416.207407 1318.000000
921.244415 -1416.981970 1318.000000
919.400492 -1417.756533 1318.000000
917.556569 -1418.531096 1318.000000
915.712646 -1419.305660 1318.000000
913.868723 -1420.080223 1318.000000
912.024800 -1420.854786 1318.000000
910.180877 -1421.629349 1318.000000
908.336954 -1422.403913 1318.000000
906.493031 -1423.178476 1318.000000
904.649109 -1423.953039 1318.000000
902.805186 -1424.727602 1318.000000
900.961263 -1425.502166 1318.000000
899.117340 -1426.276729 1318.000000
897.273417 -1427.051292 1318.000000
895.429494 -1427.825855 1318.000000
893.585571 -1428.600418 1318.000000
891.741648 -1429.374982 1318.000000
889.897725 -1430.149545 1318.000000
888.053802 -1430.924108 1318.000000
886.209879 -1431.698671 1318.000000
884.365956 -1432.473235 1318.000000
882.522033 -1433.247798 1318.000000
880.678110 -1434.022361 1318.000000
878.834187 -1434.796924 1318.000000
876.990264 -1435.571488 1318.000000
875.146342 -1436.346051 1318.000000
873.302419 -1437.120614 1318.000000
871.458496 -1437.895177 1318.000000
869.614573 -1438.669741 1318.000000
867.770650 -1439.444304 1318.000000
865.926727 -1440.218867 1318.000000
864.082804 -1440.993430 1318.000000
862.238881 -1441.767994 1318.000000
860.394958 -1442.542557 1318.000000
858.551035 -1443.317120 1318.000000
856.707112 -1444.091683 1318.000000
854.863189 -1444.866247 1318.000000
853.019266 -1445.640810 1318.000000
851.175343 -1446.415373 1318.000000
849.331420 -1447.189936 1318.000000
847.487498 -1447.964499 1318.000000
845.643575 -1448.739063 1318.000000
843.799652 -1449.513626 1318.000000
841.955729 -1450.288189 1318.000000
840.111806 -1451.062752 1318.000000
838.267883 -1451.837316 1318.000000
836.423960 -1452.611879 1318.000000
834.580037 -1453.386442 1318.000000
832.736114 -1454.161005 1318.000000
830.892191 -1454.935569 1318.000000
829.048268 -1455.710132 1318.000000
827.204345 -1456.484695 1318.000000
825.360422 -1457.259258 1318.000000
823.516499 -1458.033822 1318.000000
821.672576 -1458.808385 1318.000000
819.828654 -1459.582948 1318.000000
817.984731 -1460.357511 1318.000000
816.140808 -1461.132075 1318.000000
814.296885 -1461.906638 1318.000000
812.452962 -1462.681201 1318.000000
810.609039 -1463.455764 1318.000000
808.765116 -1464.230327 1318.000000
806.921193 -1465.004891 1318.000000
805.077270 -1465.779454 1318.000000
803.233347 -1466.554017 1318.000000
801.389424 -1467.328580 1318.000000
799.545501 -1468.103144 1318.000000
797.701578 -1468.877707 1318.000000
795.857655 -1469.652270 1318.000000
794.013732 -1470.426833 1318.000000
792.169810 -1471.201397 1318.000000
790.325887 -1471.975960 1318.000000
788.481964 -1472.750523 1318.000000
786.638041 -1473.525086 1318.000000
784.794118 -1474.299650 1318.000000
782.950195 -1475.074213 1318.000000
781.106272 -1475.848776 1318.000000
779.262349 -1476.623339 1318.000000
777.418426 -1477.397903 1318.000000
775.574503 -1478.172466 1318.000000
773.730580 -1478.947029 1318.000000
771.886657 -1479.721592 1318.000000
770.042734 -1480.496156 1318.000000
768.198811 -1481.270719 1318.000000
766.354888 -1482.045282 1318.000000
764.510965 -1482.819845 1318.000000
762.667043 -1483.594408 1318.000000
760.823120 -1484.368972 1318.000000
758.979197 -1485.143535 1318.000000
757.135274 -1485.918098 1318.000000
755.291351 -1486.692661 1318.000000
753.447428 -1487.467225 1318.000000
751.603505 -1488.241788 1318.000000
749.759582 -1489.016351 1318.000000
747.915659 -1489.790914 1318.000000
746.071736 -1490.565478 1318.000000
744.227813 -1491.340041 1318.000000
742.383890 -1492.114604 1318.000000
740.539967 -1492.889167 1318.000000
738.696044 -1493.663731 1318.000000
736.852121 -1494.438294 1318.000000
735.008199 -1495.212857 1318.000000
733.164276 -1495.987420 1318.000000
731.320353 -1496.761984 1318.000000
729.476430 -1497.536547 1318.000000
727.632507 -1498.311110 1318.000000
725.788584 -1499.085673 1318.000000
723.944661 -1499.860236 1318.000000
722.100738 -1500.634800 1318.000000
720.256815 -1501.409363 1318.000000
718.412892 -1502.183926 1318.000000
716.568969 -1502.958489 1318.000000
714.725046 -1503.733053 1318.000000
712.881123 -1504.507616 1318.000000
711.037200 -1505.282179 1318.000000
709.193277 -1506.056742 1318.000000
707.349355 -1506.831306 1318.000000
705.505432 -1507.605869 1318.000000
703.661509 -1508.380432 1318.000000
701.817586 -1509.154995 1318.000000
699.973663 -1509.929559 1318.000000
698.129740 -1510.704122 1318.000000
696.285817 -1511.478685 1318.000000
694.441894 -1512.253248 1318.000000
692.597971 -1513.027812 1318.000000
690.754048 -1513.802375 1318.000000
688.910125 -1514.576938 1318.000000
687.066202 -1515.351501 1318.000000
685.222279 -1516.126064 1318.000000
683.378356 -1516.900628 1318.000000
681.534433 -1517.675191 1318.000000
679.690510 -1518.449754 1318.000000
677.846588 -1519.224317 1318.000000
676.000000 -1520.000000 1318.000000
675.495067 -1521.885084 1318.437609
674.990134 -1523.770168 1318.875217
674.485200 -1525.655252 1319.312826
673.980267 -1527.540335 1319.750435
673.475334 -1529.425419 1320.188044
672.970401 -1531.310503 1320.625652
672.465468 -1533.195587 1321.063261
671.960535 -1535.080671 1321.500870
671.455601 -1536.965755 1321.938479
670.950668 -1538.850838 1322.376087
670.445735 -1540.735922 1322.813696
669.940802 -1542.621006 1323.251305
669.435869 -1544.506090 1323.688914
668.930936 -1546.391174 1324.126522
668.426002 -1548.276258 1324.564131
667.921069 -1550.161341 1325.001740
667.416136 -1552.046425 1325.439349
666.911203 -1553.931509 1325.876957
666.406270 -1555.816593 1326.314566
665.901337 -1557.701677 1326.752175
665.396403 -1559.586761 1327.189784
664.891470 -1561.471844 1327.627392
664.386537 -1563.356928 1328.065001
663.881604 -1565.242012 1328.502610
663.376671 -1567.127096 1328.940219
662.871738 -1569.012180 1329.377827
662.366804 -1570.897264 1329.815436
661.861871 -1572.782347 1330.253045
661.356938 -1574.667431 1330.690654
660.852005 -1576.552515 1331.128262
660.347072 -1578.437599 1331.565871
659.842139 -1580.322683 1332.003480
659.337205 -1582.207767 1332.441089
658.832272 -1584.092850 1332.878697
658.327339 -1585.977934 1333.316306
657.822406 -1587.863018 1333.753915
657.317473 -1589.748102 1334.191524
656.812540 -1591.633186 1334.629132
656.307606 -1593.518270 1335.066741
655.802673 -1595.403354 1335.504350
655.297740 -1597.288437 1335.941959
654.792807 -1599.173521 1336.379567
654.287874 -1601.058605 1336.817176
653.782940 -1602.943689 1337.254785
653.278007 -1604.828773 1337.692394
652.773074 -1606.713857 1338.130002
652.268141 -1608.598940 1338.567611
651.763208 -1610.484024 1339.005220
651.258275 -1612.369108 1339.442829
650.753341 -1614.254192 1339.880437
650.248408 -1616.139276 1340.318046
649.743475 -1618.024360 1340.755655
649.238542 -1619.909443 1341.193264
648.733609 -1621.794527 1341.630872
648.228676 -1623.679611 1342.068481
647.723742 -1625.564695 1342.506090
647.218809 -1627.449779 1342.943699
646.713876 -1629.334863 1343.381307
646.208943 -1631.219946 1343.818916
645.704010 -1633.105030 1344.256525
645.199077 -1634.990114 1344.694134
644.694143 -1636.875198 1345.131742
644.189210 -1638.760282 1345.569351
643.684277 -1640.645366 1346.006960
643.179344 -1642.530449 1346.444569
642.674411 -1644.415533 1346.882177
642.169478 -1646.300617 1347.319786
641.664544 -1648.185701 1347.757395
641.159611 -1650.070785 1348.195004
640.654678 -1651.955869 1348.632612
640.149745 -1653.840953 1349.070221
639.644812 -1655.726036 1349.507830
639.139879 -1657.611120 1349.945439
638.634945 -1659.496204 1350.383047
638.130012 -1661.381288 1350.820656
637.625079 -1663.266372 1351.258265
637.120146 -1665.151456 1351.695874
636.615213 -1667.036539 1352.133482
636.110279 -1668.921623 1352.571091
635.605346 -1670.806707 1353.008700
635.100413 -1672.691791 1353.446309
634.595480 -1674.576875 1353.883917
634.090547 -1676.461959 1354.321526
633.585614 -1678.347042 1354.759135
633.080680 -1680.232126 1355.196744
632.575747 -1682.117210 1355.634352
632.070814 -1684.002294 1356.071961
631.565881 -1685.887378 1356.509570
631.060948 -1687.772462 1356.947179
630.556015 -1689.657545 1357.384787
630.051081 -1691.542629 1357.822396
629.546148 -1693.427713 1358.260005
629.041215 -1695.312797 1358.697614
628.536282 -1697.197881 1359.135222
628.031349 -1699.082965 1359.572831
627.526416 -1700.968048 1360.010440
627.021482 -1702.853132 1360.448049
626.516549 -1704.738216 1360.885657
626.011616 -1706.623300 1361.323266
625.506683 -1708.508384 1361.760875
625.001750 -1710.393468 1362.198484
624.496817 -1712.278551 1362.636092
623.991883 -1714.163635 1363.073701
623.486950 -1716.048719 1363.511310
622.982017 -1717.933803 1363.948919
622.477084 -1719.818887 1364.386527
621.972151 -1721.703971 1364.824136
621.467218 -1723.589055 1365.261745
620.962284 -1725.474138 1365.699354
620.457351 -1727.359222 1366.136962
619.952418 -1729.244306 1366.574571
619.447485 -1731.129390 1367.012180
618.942552 -1733.014474 1367.449789
618.437619 -1734.899558 1367.887397
617.932685 -1736.784641 1368.325006
617.427752 -1738.669725 1368.762615
616.922819 -1740.554809 1369.200224
616.417886 -1742.439893 1369.637832
615.912953 -1744.324977 1370.075441
615.408019 -1746.210061 1370.513050
614.903086 -1748.095144 1370.950659
614.398153 -1749.980228 1371.388267
613.893220 -1751.865312 1371.825876
613.388287 -1753.750396 1372.263485
612.883354 -1755.635480 1372.701094
612.378420 -1757.520564 1373.138702
611.873487 -1759.405647 1373.576311
611.368554 -1761.290731 1374.013920
610.863621 -1763.175815 1374.451529
610.358688 -1765.060899 1374.889137
609.853755 -1766.945983 1375.326746
609.348821 -1768.831067 1375.764355
608.843888 -1770.716150 1376.201963
608.338955 -1772.601234 1376.639572
607.834022 -1774.486318 1377.077181
607.329089 -1776.371402 1377.514790
606.824156 -1778.256486 1377.952398
606.319222 -1780.141570 1378.390007
605.814289 -1782.026653 1378.827616
605.309356 -1783.911737 1379.265225
604.804423 -1785.796821 1379.702833
604.299490 -1787.681905 1380.140442
603.794557 -1789.566989 1380.578051
603.289623 -1791.452073 1381.015660
602.784690 -1793.337157 1381.453268
602.279757 -1795.222240 1381.890877
601.774824 -1797.107324 1382.328486
601.269891 -1798.992408 1382.766095
600.764958 -1800.877492 1383.203703
600.260024 -1802.762576 1383.641312
599.755091 -1804.647660 1384.078921
599.250158 -1806.532743 1384.516530
598.745225 -1808.417827 1384.954138
598.240292 -1810.302911 1385.391747
597.735359 -1812.187995 1385.829356
597.230425 -1814.073079 1386.266965
596.725492 -1815.958163 1386.704573
596.220559 -1817.843246 1387.142182
595.715626 -1819.728330 1387.579791
595.210693 -1821.613414 1388.017400
594.705759 -1823.498498 1388.455008
594.200826 -1825.383582 1388.892617
593.695893 -1827.268666 1389.330226
593.190960 -1829.153749 1389.767835
592.686027 -1831.038833 1390.205443
592.181094 -1832.923917 1390.643052
591.676160 -1834.809001 1391.080661
591.171227 -1836.694085 1391.518270
590.666294 -1838.579169 1391.955878
590.161361 -1840.464252 1392.393487
589.656428 -1842.349336 1392.831096
589.151495 -1844.234420 1393.268705
588.646561 -1846.119504 1393.706313
588.141628 -1848.004588 1394.143922
587.636695 -1849.889672 1394.581531
587.131762 -1851.774755 1395.019140
586.626829 -1853.659839 1395.456748
586.121896 -1855.544923 1395.894357
585.616962 -1857.430007 1396.331966
585.112029 -1859.315091 1396.769575
584.607096 -1861.200175 1397.207183
584.102163 -1863.085259 1397.644792
583.597230 -1864.970342 1398.082401
583.092297 -1866.855426 1398.520010
582.587363 -1868.740510 1398.957618
582.082430 -1870.625594 1399.395227
581.577497 -1872.510678 1399.832836
581.072564 -1874.395762 1400.270445
580.567631 -1876.280845 1400.708053
580.062698 -1878.165929 1401.145662
579.557764 -1880.051013 1401.583271
579.052831 -1881.936097 1402.020880
578.547898 -1883.821181 1402.458488
578.042965 -1885.706265 1402.896097
577.538032 -1887.591348 1403.333706
577.033099 -1889.476432 1403.771315
576.528165 -1891.361516 1404.208923
576.023232 -1893.246600 1404.646532
575.518299 -1895.131684 1405.084141
575.013366 -1897.016768 1405.521750
574.508433 -1898.901851 1405.959358
574.003499 -1900.786935 1406.396967
573.498566 -1902.672019 1406.834576
572.993633 -1904.557103 1407.272185
572.488700 -1906.442187 1407.709793
571.983767 -1908.327271 1408.147402
571.478834 -1910.212354 1408.585011
570.973900 -1912.097438 1409.022620
570.468967 -1913.982522 1409.460228
569.964034 -1915.867606 1409.897837
569.459101 -1917.752690 1410.335446
568.954168 -1919.637774 1410.773055
568.449235 -1921.522858 1411.210663
567.944301 -1923.407941 1411.648272
567.439368 -1925.293025 1412.085881
566.934435 -1927.178109 1412.523490
566.429502 -1929.063193 1412.961098
565.924569 -1930.948277 1413.398707
565.419636 -1932.833361 1413.836316
564.914702 -1934.718444 1414.273925
564.409769 -1936.603528 1414.711533
563.904836 -1938.488612 1415.149142
563.399903 -1940.373696 1415.586751
562.894970 -1942.258780 1416.024360
562.390037 -1944.143864 1416.461968
561.885103 -1946.028947 1416.899577
561.380170 -1947.914031 1417.337186
560.875237 -1949.799115 1417.774795
560.370304 -1951.684199 1418.212403
559.865371 -1953.569283 1418.650012
559.360438 -1955.454367 1419.087621
558.855504 -1957.339450 1419.525230
558.350571 -1959.224534 1419.962838
557.845638 -1961.109618 1420.400447
557.340705 -1962.994702 1420.838056
556.835772 -1964.879786 1421.275665
556.000000 -1968.000000 1422.000000
556.000000 -1970.000000 1422.000000
556.000000 -1972.000000 1422.000000
556.000000 -1974.000000 1422.000000
556.000000 -1976.000000 1422.000000
556.000000 -1978.000000 1422.000000
556.000000 -1980.000000 1422.000000
556.000000 -1982.000000 1422.000000
556.000000 -1984.000000 1422.000000
556.000000 -1986.000000 1422.000000
556.000000 -1988.000000 1422.000000
556.000000 -1990.000000 1422.000000
556.000000 -1992.000000 1422.000000
556.000000 -1994.000000 1422.000000
556.000000 -1996.000000 1422.000000
556.000000 -1998.000000 1422.000000
556.000000 -2000.000000 1422.000000
556.000000 -2002.000000 1422.000000
556.000000 -2004.000000 1422.000000
556.000000 -2006.000000 1422.000000
556.000000 -2008.000000 1422.000000
556.000000 -2010.000000 1422.000000
556.000000 -2012.000000 1422.000000
556.000000 -2014.000000 1422.000000
556.000000 -2016.000000 1422.000000
556.000000 -2018.000000 1422.000000
556.000000 -2020.000000 1422.000000
556.000000 -2022.000000 1422.000000
556.000000 -2024.000000 1422.000000
556.000000 -2026.000000 1422.000000
556.000000 -2028.000000 1422.000000
556.000000 -2030.000000 1422.000000
556.000000 -2032.000000 1422.000000
556.000000 -2034.000000 1422.000000
556.000000 -2036.000000 1422.000000
556.000000 -2038.000000 1422.000000
556.000000 -2040.000000 1422.000000
556.000000 -2042.000000 1422.000000
556.000000 -2044.000000 1422.000000
556.000000 -2046.000000 1422.000000
556.000000 -2048.000000 1422.000000
556.000000 -2050.000000 1422.000000
556.000000 -2052.000000 1422.000000
556.000000 -2054.000000 1422.000000
556.000000 -2056.000000 1422.000000
556.000000 -2058.000000 1422.000000
556.000000 -2060.000000 1422.000000
556.000000 -2064.000000 1422.000000
556.000000 -2066.000000 1422.000000
556.000000 -2068.000000 1422.000000
556.000000 -2070.000000 1422.000000
556.000000 -2072.000000 1422.000000
556.000000 -2074.000000 1422.000000
556.000000 -2076.000000 1422.000000
556.000000 -2078.000000 1422.000000
556.000000 -2080.000000 1422.000000
556.000000 -2082.000000 1422.000000
556.000000 -2084.000000 1422.000000
556.000000 -2086.000000 1422.000000
556.000000 -2088.000000 1422.000000
556.000000 -2090.000000 1422.000000
556.000000 -2092.000000 1422.000000
556.000000 -2094.000000 1422.000000
556.000000 -2096.000000 1422.000000
556.000000 -2098.000000 1422.000000
556.000000 -2100.000000 1422.000000
556.000000 -2102.000000 1422.000000
556.000000 -2104.000000 1422.000000
556.000000 -2106.000000 1422.000000
556.000000 -2108.000000 1422.000000
556.000000 -2110.000000 1422.000000
556.000000 -2112.000000 1422.000000
556.000000 -2114.000000 1422.000000
556.000000 -2116.000000 1422.000000
556.000000 -2118.000000 1422.000000
556.000000 -2120.000000 1422.000000
556.000000 -2122.000000 1422.000000
556.000000 -2124.000000 1422.000000
556.000000 -2126.000000 1422.000000
556.000000 -2128.000000 1422.000000
556.000000 -2130.000000 1422.000000
556.000000 -2132.000000 1422.000000
556.000000 -2134.000000 1422.000000
556.000000 -2136.000000 1422.000000
556.000000 -2138.000000 1422.000000
556.000000 -2140.000000 1422.000000
556.000000 -2142.000000 1422.000000
556.000000 -2144.000000 1422.000000
556.000000 -2146.000000 1422.000000
556.000000 -2148.000000 1422.000000
556.000000 -2150.000000 1422.000000
556.000000 -2152.000000 1422.000000
556.000000 -2154.000000 1422.000000
556.000000 -2156.000000 1422.000000
556.000000 -2158.000000 1422.000000
556.000000 -2160.000000 1422.000000
556.000000 -2162.000000 1422.000000
556.000000 -2164.000000 1422.000000
556.000000 -2166.000000 1422.000000
556.000000 -2168.000000 1422.000000
556.000000 -2170.000000 1422.000000
556.000000 -2172.000000 1422.000000
556.000000 -2174.000000 1422.000000
556.000000 -2176.000000 1422.000000
556.000000 -2178.000000 1422.000000
556.000000 -2180.000000 1422.000000
556.000000 -2182.000000 1422.000000
556.000000 -2184.000000 1422.000000
556.000000 -2186.000000 1422.000000
556.000000 -2188.000000 1422.000000
556.000000 -2190.000000 1422.000000
556.000000 -2192.000000 1422.000000
556.000000 -2194.000000 1422.000000
556.000000 -2196.000000 1422.000000
556.000000 -2198.000000 1422.000000
556.000000 -2200.000000 1422.000000
556.000000 -2202.000000 1422.000000
556.000000 -2204.000000 1422.000000
556.000000 -2206.000000 1422.000000
556.000000 -2208.000000 1422.000000
556.000000 -2210.000000 1422.000000
556.000000 -2212.000000 1422.000000
556.000000 -2214.000000 1422.000000
556.000000 -2216.000000 1422.000000
556.000000 -2218.000000 1422.000000
556.000000 -2220.000000 1422.000000
556.000000 -2222.000000 1422.000000
556.000000 -2224.000000 1422.000000
556.000000 -2226.000000 1422.000000
556.000000 -2228.000000 1422.000000
556.000000 -2230.000000 1422.000000
556.000000 -2232.000000 1422.000000
556.000000 -2234.000000 1422.000000
556.000000 -2236.000000 1422.000000
556.000000 -2238.000000 1422.000000
556.000000 -2240.000000 1422.000000
556.000000 -2242.000000 1422.000000
556.000000 -2244.000000 1422.000000
556.000000 -2246.000000 1422.000000
556.000000 -2248.000000 1422.000000
556.000000 -2250.000000 1422.000000
556.000000 -2252.000000 1422.000000
556.000000 -2254.000000 1422.000000
556.000000 -2256.000000 1422.000000
556.000000 -2258.000000 1422.000000
556.000000 -2260.000000 1422.000000
556.000000 -2262.000000 1422.000000
556.000000 -2264.000000 1422.000000
556.000000 -2266.000000 1422.000000
556.000000 -2268.000000 1422.000000
556.000000 -2270.000000 1422.000000
556.000000 -2272.000000 1422.000000
556.000000 -2274.000000 1422.000000
556.000000 -2276.000000 1422.000000
556.000000 -2278.000000 1422.000000
556.000000 -2280.000000 1422.000000
556.000000 -2282.000000 1422.000000
556.000000 -2284.000000 1422.000000
556.000000 -2286.000000 1422.000000
556.000000 -2288.000000 1422.000000
556.000000 -2290.000000 1422.000000
556.000000 -2292.000000 1422.000000
556.000000 -2294.000000 1422.000000
556.000000 -2296.000000 1422.000000
556.000000 -2298.000000 1422.000000
556.000000 -2300.000000 1422.000000
556.000000 -2302.000000 1422.000000
556.000000 -2304.000000 1422.000000
556.000000 -2306.000000 1422.000000
556.000000 -2308.000000 1422.000000
556.000000 -2310.000000 1422.000000
556.000000 -2312.000000 1422.000000
556.000000 -2314.000000 1422.000000
556.000000 -2316.000000 1422.000000
556.000000 -2318.000000 1422.000000
556.000000 -2320.000000 1422.000000
556.000000 -2322.000000 1422.000000
556.000000 -2324.000000 1422.000000
556.000000 -2326.000000 1422.000000
556.000000 -2328.000000 1422.000000
556.000000 -2330.000000 1422.000000
556.000000 -2332.000000 1422.000000
556.000000 -2334.000000 1422.000000
556.000000 -2336.000000 1422.000000
556.000000 -2338.000000 1422.000000
556.000000 -2340.000000 1422.000000
556.000000 -2342.000000 1422.000000
556.000000 -2344.000000 1422.000000
556.000000 -2346.000000 1422.000000
556.000000 -2348.000000 1422.000000
556.000000 -2350.000000 1422.000000
556.000000 -2352.000000 1422.000000
556.000000 -2354.000000 1422.000000
556.000000 -2356.000000 1422.000000
556.000000 -2358.000000 1422.000000
556.000000 -2360.000000 1422.000000
556.000000 -2362.000000 1422.000000
556.000000 -2364.000000 1422.000000
556.000000 -2366.000000 1422.000000
556.000000 -2368.000000 1422.000000
556.000000 -2370.000000 1422.000000
556.000000 -2372.000000 1422.000000
556.000000 -2374.000000 1422.000000
556.000000 -2376.000000 1422.000000
556.000000 -2380.000000 1422.000000
556.000000 -2381.887378 1421.338333
556.000000 -2383.774757 1420.676666
556.000000 -2385.662135 1420.014999
556.000000 -2387.549513 1419.353332
556.000000 -2389.436891 1418.691665
556.000000 -2391.324270 1418.029997
556.000000 -2393.211648 1417.368330
556.000000 -2395.099026 1416.706663
556.000000 -2396.986404 1416.044996
556.000000 -2398.873783 1415.383329
556.000000 -2400.761161 1414.721662
556.000000 -2402.648539 1414.059995
556.000000 -2404.535917 1413.398328
556.000000 -2406.423296 1412.736661
556.000000 -2408.310674 1412.074994
556.000000 -2410.198052 1411.413327
556.000000 -2412.085430 1410.751660
556.000000 -2413.972809 1410.089992
556.000000 -2415.860187 1409.428325
556.000000 -2417.747565 1408.766658
556.000000 -2419.634943 1408.104991
556.000000 -2421.522322 1407.443324
556.000000 -2423.409700 1406.781657
556.000000 -2425.297078 1406.119990
556.000000 -2427.184456 1405.458323
556.000000 -2429.071835 1404.796656
556.000000 -2430.959213 1404.134989
556.000000 -2432.846591 1403.473322
556.000000 -2434.733969 1402.811654
556.000000 -2436.621348 1402.149987
556.000000 -2438.508726 1401.488320
556.000000 -2440.396104 1400.826653
556.000000 -2442.283482 1400.164986
556.000000 -2444.170861 1399.503319
556.000000 -2446.058239 1398.841652
556.000000 -2447.945617 1398.179985
556.000000 -2449.832995 1397.518318
556.000000 -2451.720374 1396.856651
556.000000 -2453.607752 1396.194984
556.000000 -2455.495130 1395.533316
556.000000 -2457.382508 1394.871649
556.000000 -2459.269887 1394.209982
556.000000 -2461.157265 1393.548315
556.000000 -2463.044643 1392.886648
556.000000 -2464.932021 1392.224981
556.000000 -2466.819400 1391.563314
556.000000 -2468.706778 1390.901647
556.000000 -2470.594156 1390.239980
556.000000 -2472.481534 1389.578313
556.000000 -2474.368913 1388.916646
556.000000 -2476.256291 1388.254979
556.000000 -2478.143669 1387.593311
556.000000 -2480.031047 1386.931644
556.000000 -2481.918426 1386.269977
556.000000 -2483.805804 1385.608310
556.000000 -2485.693182 1384.946643
556.000000 -2487.580560 1384.284976
556.000000 -2489.467939 1383.623309
556.000000 -2491.355317 1382.961642
556.000000 -2493.242695 1382.299975
556.000000 -2495.130073 1381.638308
556.000000 -2497.017452 1380.976641
556.000000 -2498.904830 1380.314973
556.000000 -2500.792208 1379.653306
556.000000 -2502.679586 1378.991639
556.000000 -2504.566965 1378.329972
556.000000 -2506.454343 1377.668305
556.000000 -2508.341721 1377.006638
556.000000 -2510.229099 1376.344971
556.000000 -2512.116478 1375.683304
556.000000 -2514.003856 1375.021637
556.000000 -2515.891234 1374.359970
556.000000 -2517.778612 1373.698303
556.000000 -2519.665991 1373.036635
556.000000 -2521.553369 1372.374968
556.000000 -2523.440747 1371.713301
556.000000 -2525.328125 1371.051634
556.000000 -2527.215504 1370.389967
556.000000 -2529.102882 1369.728300
556.000000 -2530.990260 1369.066633
556.000000 -2532.877638 1368.404966
556.000000 -2534.765017 1367.743299
556.000000 -2536.652395 1367.081632
556.000000 -2538.539773 1366.419965
556.000000 -2540.427151 1365.758298
556.000000 -2542.314530 1365.096630
556.000000 -2544.201908 1364.434963
556.000000 -2546.089286 1363.773296
556.000000 -2547.976664 1363.111629
556.000000 -2549.864043 1362.449962
556.000000 -2551.751421 1361.788295
556.000000 -2553.638799 1361.126628
556.000000 -2555.526177 1360.464961
556.000000 -2557.413556 1359.803294
556.000000 -2559.300934 1359.141627
556.000000 -2561.188312 1358.479960
556.000000 -2563.075690 1357.818292
556.000000 -2564.963069 1357.156625
556.000000 -2566.850447 1356.494958
556.000000 -2568.737825 1355.833291
556.000000 -2570.625203 1355.171624
556.000000 -2572.512582 1354.509957
556.000000 -2574.399960 1353.848290
556.000000 -2576.287338 1353.186623
556.000000 -2578.174716 1352.524956
556.000000 -2580.062095 1351.863289
556.000000 -2581.949473 1351.201622
556.000000 -2583.836851 1350.539954
556.000000 -2585.724229 1349.878287
556.000000 -2587.611608 1349.216620
556.000000 -2589.498986 1348.554953
556.000000 -2591.386364 1347.893286
556.000000 -2593.273742 1347.231619
556.000000 -2595.161121 1346.569952
556.000000 -2597.048499 1345.908285
556.000000 -2598.935877 1345.246618
556.000000 -2600.823255 1344.584951
556.000000 -2602.710634 1343.923284
556.000000 -2604.598012 1343.261617
556.000000 -2606.485390 1342.599949
556.000000 -2608.372768 1341.938282
556.000000 -2610.260147 1341.276615
556.000000 -2612.147525 1340.614948
556.000000 -2614.034903 1339.953281
556.000000 -2615.922281 1339.291614
556.000000 -2617.809660 1338.629947
556.000000 -2619.697038 1337.968280
556.000000 -2621.584416 1337.306613
556.000000 -2623.471794 1336.644946
556.000000 -2625.359173 1335.983279
556.000000 -2627.246551 1335.321611
556.000000 -2629.133929 1334.659944
556.000000 -2631.021307 1333.998277
556.000000 -2632.908686 1333.336610
556.000000 -2634.796064 1332.674943
556.000000 -2636.683442 1332.013276
556.000000 -2638.570820 1331.351609
556.000000 -2640.458199 1330.689942
556.000000 -2642.345577 1330.028275
556.000000 -2644.232955 1329.366608
556.000000 -2646.120333 1328.704941
556.000000 -2648.007712 1328.043273
556.000000 -2649.895090 1327.381606
556.000000 -2651.782468 1326.719939
556.000000 -2653.669846 1326.058272
556.000000 -2655.557225 1325.396605
556.000000 -2657.444603 1324.734938
556.000000 -2659.331981 1324.073271
556.000000 -2661.219359 1323.411604
556.000000 -2663.106738 1322.749937
556.000000 -2664.994116 1322.088270
556.000000 -2666.881494 1321.426603
556.000000 -2668.768872 1320.764936
556.000000 -2670.656251 1320.103268
556.000000 -2672.543629 1319.441601
556.000000 -2674.431007 1318.779934
556.000000 -2676.318385 1318.118267
556.000000 -2678.205764 1317.456600
556.000000 -2680.093142 1316.794933
556.000000 -2681.980520 1316.133266
556.000000 -2683.867898 1315.471599
556.000000 -2685.755277 1314.809932
556.000000 -2687.642655 1314.148265
556.000000 -2689.530033 1313.486598
556.000000 -2691.417412 1312.824930
556.000000 -2693.304790 1312.163263
556.000000 -2695.192168 1311.501596
556.000000 -2697.079546 1310.839929
556.000000 -2698.966925 1310.178262
556.000000 -2700.854303 1309.516595
556.000000 -2702.741681 1308.854928
556.000000 -2704.629059 1308.193261
556.000000 -2706.516438 1307.531594
556.000000 -2708.403816 1306.869927
556.000000 -2710.291194 1306.208260
556.000000 -2712.178572 1305.546592
556.000000 -2714.065951 1304.884925
556.000000 -2715.953329 1304.223258
556.000000 -2717.840707 1303.561591
556.000000 -2719.728085 1302.899924
556.000000 -2721.615464 1302.238257
556.000000 -2723.502842 1301.576590
556.000000 -2725.390220 1300.914923
556.000000 -2728.000000 1300.000000
556.000000 -2728.000000 1298.000000
556.000000 -2728.000000 1296.000000
556.000000 -2728.000000 1294.000000
556.000000 -2728.000000 1292.000000
556.000000 -2728.000000 1290.000000
556.000000 -2728.000000 1288.000000
556.000000 -2728.000000 1286.000000
556.000000 -2728.000000 1284.000000
556.000000 -2728.000000 1282.000000
556.000000 -2728.000000 1280.000000
556.000000 -2728.000000 1278.000000
556.000000 -2728.000000 1276.000000
556.000000 -2728.000000 1274.000000
556.000000 -2728.000000 1272.000000
556.000000 -2728.000000 1270.000000
556.000000 -2728.000000 1268.000000
556.000000 -2728.000000 1266.000000
556.000000 -2728.000000 1264.000000
556.000000 -2728.000000 1262.000000
556.000000 -2728.000000 1260.000000
556.000000 -2728.000000 1258.000000
556.000000 -2728.000000 1256.000000
556.000000 -2728.000000 1254.000000
556.000000 -2728.000000 1252.000000
556.000000 -2728.000000 1250.000000
556.000000 -2728.000000 1248.000000
556.000000 -2728.000000 1246.000000
556.000000 -2728.000000 1244.000000
556.000000 -2728.000000 1242.000000
556.000000 -2728.000000 1240.000000
556.000000 -2728.000000 1238.000000
556.000000 -2728.000000 1236.000000
556.000000 -2728.000000 1234.000000
556.000000 -2728.000000 1232.000000
556.000000 -2728.000000 1230.000000
556.000000 -2728.000000 1228.000000
556.000000 -2728.000000 1226.000000
556.000000 -2728.000000 1224.000000
556.000000 -2728.000000 1222.000000
556.000000 -2728.000000 1220.000000
556.000000 -2728.000000 1218.000000
556.000000 -2728.000000 1216.000000
556.000000 -2728.000000 1214.000000
556.000000 -2728.000000 1212.000000
556.000000 -2728.000000 1210.000000
556.000000 -2728.000000 1208.000000
556.000000 -2728.000000 1206.000000
556.000000 -2728.000000 1204.000000
556.000000 -2728.000000 1202.000000
556.000000 -2728.000000 1200.000000
556.000000 -2728.000000 1198.000000
556.000000 -2728.000000 1196.000000
556.000000 -2728.000000 1194.000000
556.000000 -2728.000000 1192.000000
556.000000 -2728.000000 1190.000000
556.000000 -2728.000000 1188.000000
556.000000 -2728.000000 1186.000000
556.000000 -2728.000000 1184.000000
556.000000 -2728.000000 1182.000000
556.000000 -2728.000000 1180.000000
556.000000 -2728.000000 1178.000000
556.000000 -2728.000000 1176.000000
556.000000 -2728.000000 1174.000000
556.000000 -2728.000000 1172.000000
556.000000 -2728.000000 1170.000000
556.000000 -2728.000000 1168.000000
556.000000 -2728.000000 1166.000000
556.000000 -2728.000000 1164.000000
556.000000 -2728.000000 1162.000000
556.000000 -2728.000000 1160.000000
556.000000 -2728.000000 1158.000000
556.000000 -2728.000000 1156.000000
556.000000 -2728.000000 1154.000000
556.000000 -2728.000000 1152.000000
556.000000 -2728.000000 1150.000000
556.000000 -2728.000000 1148.000000
556.000000 -2728.000000 1146.000000
556.000000 -2728.000000 1144.000000
556.000000 -2728.000000 1142.000000
556.000000 -2728.000000 1140.000000
556.000000 -2728.000000 1138.000000
556.000000 -2728.000000 1136.000000
556.000000 -2728.000000 1134.000000
556.000000 -2728.000000 1132.000000
556.000000 -2728.000000 1130.000000
556.000000 -2728.000000 1128.000000
556.000000 -2728.000000 1126.000000
556.000000 -2728.000000 1124.000000
556.000000 -2728.000000 1122.000000
556.000000 -2728.000000 1120.000000
556.000000 -2728.000000 1118.000000
556.000000 -2728.000000 1116.000000
556.000000 -2728.000000 1114.000000
556.000000 -2728.000000 1112.000000
556.000000 -2728.000000 1110.000000
556.000000 -2728.000000 1108.000000
556.000000 -2728.000000 1106.000000
556.000000 -2728.000000 1104.000000
556.000000 -2728.000000 1102.000000
556.000000 -2728.000000 1100.000000
556.000000 -2728.000000 1098.000000
556.000000 -2728.000000 1096.000000
556.000000 -2728.000000 1094.000000
556.000000 -2728.000000 1092.000000
556.000000 -2728.000000 1090.000000
556.000000 -2728.000000 1088.000000
556.000000 -2728.000000 1086.000000
556.000000 -2728.000000 1084.000000
556.000000 -2728.000000 1082.000000
556.000000 -2728.000000 1080.000000
556.000000 -2728.000000 1078.000000
556.000000 -2728.000000 1076.000000
556.000000 -2728.000000 1074.000000
556.000000 -2728.000000 1072.000000
556.000000 -2728.000000 1070.000000
556.000000 -2728.000000 1068.000000
556.000000 -2728.000000 1066.000000
556.000000 -2728.000000 1064.000000
556.000000 -2728.000000 1062.000000
556.000000 -2728.000000 1060.000000
556.000000 -2728.000000 1058.000000
556.000000 -2728.000000 1056.000000
556.000000 -2728.000000 1054.000000
556.000000 -2728.000000 1052.000000
556.000000 -2728.000000 1050.000000
556.000000 -2728.000000 1048.000000
556.000000 -2728.000000 1046.000000
556.000000 -2728.000000 1044.000000
556.000000 -2728.000000 1042.000000
556.000000 -2728.000000 1040.000000
556.000000 -2728.000000 1038.000000
556.000000 -2728.000000 1036.000000
556.000000 -2728.000000 1034.000000
556.000000 -2728.000000 1032.000000
556.000000 -2728.000000 1030.000000
556.000000 -2728.000000 1028.000000
556.000000 -2728.000000 1026.000000
556.000000 -2728.000000 1024.000000
556.000000 -2728.000000 1022.000000
556.000000 -2728.000000 1020.000000
556.000000 -2728.000000 1018.000000
556.000000 -2728.000000 1016.000000
556.000000 -2728.000000 1014.000000
556.000000 -2728.000000 1012.000000
556.000000 -2728.000000 1010.000000
556.000000 -2728.000000 1008.000000
556.000000 -2728.000000 1006.000000
556.000000 -2728.000000 1004.000000
556.000000 -2728.000000 1002.000000
556.000000 -2728.000000 1000.000000
556.000000 -2728.000000 998.000000
556.000000 -2728.000000 996.000000
556.000000 -2728.000000 994.000000
556.000000 -2728.000000 992.000000
556.000000 -2728.000000 990.000000
556.000000 -2728.000000 988.000000
556.000000 -2728.000000 986.000000
556.000000 -2728.000000 984.000000
556.000000 -2728.000000 982.000000
556.000000 -2728.000000 980.000000
556.000000 -2728.000000 978.000000
556.000000 -2728.000000 976.000000
556.000000 -2728.000000 974.000000
556.000000 -2728.000000 972.000000
556.000000 -2728.000000 970.000000
556.000000 -2728.000000 968.000000
